# .PCD v0.7 - Point Cloud Data file format
VERSION 0.7
FIELDS x y z
SIZE 4 4 4
TYPE F F F
COUNT 1 1 1
WIDTH 827
HEIGHT 1
VIEWPOINT 0 0 0 1 0 0 0
POINTS 827
DATA ascii
2.35592	-0.557073	-0.334061	0.03518	-0.083064	0.995923	0
2.38541	-0.556793	-0.332775	0.017632	-0.089794	0.995804	0
2.41522	-0.557046	-0.33268	-0.002558	-0.072575	0.99736	0
2.44507	-0.553962	-0.33407	-0.010207	-0.071266	0.997405	0
2.47608	-0.555017	-0.335672	-0.007484	-0.06159	0.998074	0
2.50629	-0.555007	-0.336645	-0.005288	-0.050053	0.998733	0
2.5345	-0.55508	-0.335091	0.002544	-0.042417	0.999097	0
2.56414	-0.555489	-0.33188	0.005383	-0.039933	0.999188	0
2.59509	-0.554443	-0.332933	0.006564	-0.046498	0.998897	0
2.625	-0.554635	-0.337526	0.018519	-0.057231	0.998189	0
2.65218	-0.55582	-0.341256	0.038573	-0.072897	0.996593	0
2.68115	-0.55598	-0.345187	0.05428	-0.10711	0.992764	0
2.7168	-0.556402	-0.350214	0.070199	-0.162767	0.984164	0
2.74911	-0.55532	-0.352324	0.067708	-0.196918	0.978079	0
2.77452	-0.555798	-0.352947	0.064551	-0.210764	0.975403	0
2.80537	-0.555862	-0.354128	0.070111	-0.216793	0.973697	0
2.8334	-0.555531	-0.353485	-0.0862	0.206405	-0.974662	0
2.86263	-0.554837	-0.35228	0.078225	-0.207395	0.975125	0
2.8972	-0.554417	-0.352234	-0.086459	0.205638	-0.974801	0
2.92291	-0.555834	-0.352577	0.078408	-0.197418	0.977179	0
2.95177	-0.553242	-0.354881	0.077994	-0.187835	0.979099	0
2.99289	-0.551577	-0.356565	0.053588	-0.154549	0.986531	0
3.01326	-0.553682	-0.357411	0.040306	-0.134036	0.990156	0
3.04567	-0.554171	-0.355913	0.005877	-0.106002	0.994349	0
3.07821	-0.556147	-0.357412	-0.023505	-0.074528	0.996942	0
3.10656	-0.554125	-0.354146	-0.026174	-0.060306	0.997837	0
3.13693	-0.553713	-0.350509	-0.027956	-0.019031	0.999428	0
3.16366	-0.555457	-0.345985	-0.015767	-0.006789	0.999853	0
3.18924	-0.551476	-0.343993	0.005602	0.009696	0.999937	0
3.22466	-0.555304	-0.348475	0.036348	0.009769	0.999291	0
3.25359	-0.558269	-0.351363	0.093644	0.018758	0.995429	0
3.27876	-0.554251	-0.357406	-0.135151	-0.034463	-0.990225	0
3.30689	-0.568382	-0.359596	-0.177605	-0.03076	-0.983621	0
2.27291	-0.521877	-0.33184	-0.110793	0.176531	-0.97804	0
2.29571	-0.523749	-0.335451	0.089087	-0.154874	0.983909	0
2.3261	-0.525296	-0.335279	0.05809	-0.144248	0.987835	0
2.35089	-0.522934	-0.331885	0.047535	-0.154541	0.986842	0
2.37882	-0.524723	-0.331893	0.024991	-0.147995	0.988672	0
2.41271	-0.535633	-0.330933	0.004579	-0.114277	0.993438	0
2.44463	-0.524032	-0.331124	0.004068	-0.094947	0.995474	0
2.47695	-0.528265	-0.332627	-0.00036	-0.056964	0.998376	0
2.50551	-0.524556	-0.333388	0.003878	-0.048343	0.998823	0
2.53451	-0.525936	-0.332383	0.004379	-0.036219	0.999334	0
2.56109	-0.523967	-0.331558	0.008092	-0.032523	0.999438	0
2.5982	-0.530278	-0.332074	0.007691	-0.040119	0.999165	0
2.62667	-0.528212	-0.334479	0.01472	-0.055404	0.998355	0
2.6531	-0.526675	-0.333623	0.013101	-0.082658	0.996492	0
2.68335	-0.526494	-0.33694	0.024289	-0.130309	0.991176	0
2.71356	-0.526788	-0.33985	0.04501	-0.182692	0.982139	0
2.74339	-0.525914	-0.33852	0.048324	-0.222979	0.973625	0
2.7776	-0.522795	-0.338507	0.054136	-0.249353	0.966898	0
2.80482	-0.526037	-0.338769	0.062832	-0.264226	0.962412	0
2.83981	-0.52525	-0.340317	-0.082252	0.265094	-0.960708	0
2.8656	-0.525258	-0.340445	-0.09078	0.253318	-0.963114	0
2.89823	-0.526651	-0.342448	-0.095175	0.247081	-0.964309	0
2.92102	-0.524833	-0.34363	-0.092452	0.229091	-0.969005	0
2.94698	-0.524402	-0.349227	-0.08995	0.204897	-0.974642	0
2.98058	-0.524686	-0.355273	0.081727	-0.176009	0.98099	0
3.00891	-0.530435	-0.358003	0.054792	-0.155468	0.98632	0
3.03641	-0.539503	-0.356716	0.025397	-0.119175	0.992548	0
3.07686	-0.528613	-0.358473	0.004651	-0.094104	0.995552	0
3.10759	-0.527422	-0.355689	-0.002609	-0.068381	0.997656	0
3.13314	-0.527803	-0.353074	-0.006187	-0.032481	0.999453	0
3.16518	-0.525682	-0.351907	-0.002624	-0.013103	0.999911	0
3.19374	-0.526012	-0.350739	0.01465	-0.001269	0.999892	0
3.22226	-0.523888	-0.354346	0.044486	0.008207	0.998976	0
3.24596	-0.522849	-0.356359	0.088228	0.019765	0.995904	0
3.27714	-0.53711	-0.357333	-0.130201	-0.033094	-0.990935	0
2.27344	-0.497781	-0.332382	-0.099017	0.204811	-0.97378	0
2.29548	-0.496379	-0.335601	0.08687	-0.222812	0.970983	0
2.3256	-0.49575	-0.335264	0.060591	-0.220942	0.973403	0
2.35463	-0.496457	-0.33383	0.057158	-0.213237	0.975327	0
2.38181	-0.493864	-0.332475	0.04034	-0.188107	0.98132	0
2.40058	-0.483003	-0.330199	0.04366	-0.16	0.986151	0
2.45962	-0.509709	-0.332139	0.013916	-0.090966	0.995757	0
2.47703	-0.497546	-0.331846	0.016757	-0.062137	0.997927	0
2.50477	-0.495367	-0.331945	0.014975	-0.045245	0.998864	0
2.53421	-0.494958	-0.331806	0.013835	-0.02897	0.999485	0
2.55688	-0.492112	-0.330268	0.016071	-0.031555	0.999373	0
2.63969	-0.509668	-0.330067	-0.010084	-0.071779	0.99737	0
2.6649	-0.508545	-0.331921	0.001616	-0.109549	0.99398	0
2.68716	-0.507869	-0.33198	0.008667	-0.149807	0.988677	0
2.70952	-0.507048	-0.331842	0.010386	-0.19793	0.980161	0
2.73704	-0.508068	-0.330519	0.039792	-0.239004	0.970203	0
2.76507	-0.505161	-0.332531	0.054424	-0.255759	0.965207	0
2.79715	-0.507418	-0.330984	0.060862	-0.266883	0.961805	0
2.83988	-0.505311	-0.331553	-0.082206	0.272159	-0.958735	0
2.87079	-0.502008	-0.33345	-0.09932	0.268732	-0.958081	0
2.89515	-0.494036	-0.332369	-0.103597	0.268925	-0.957574	0
2.92262	-0.494294	-0.339099	-0.115805	0.252229	-0.960713	0
2.94622	-0.496448	-0.344509	-0.115449	0.229972	-0.966325	0
2.97512	-0.493933	-0.349446	-0.101827	0.216488	-0.97096	0
3.01304	-0.498966	-0.358188	0.082936	-0.17921	0.980309	0
3.10087	-0.492434	-0.357164	0.023849	-0.115525	0.993018	0
3.13391	-0.49707	-0.358716	0.009418	-0.061051	0.99809	0
3.16423	-0.493936	-0.355308	0.016062	-0.04056	0.999048	0
3.19097	-0.496837	-0.353679	0.026315	-0.020719	0.999439	0
3.22324	-0.493115	-0.356636	0.059422	-0.00829	0.998199	0
3.24145	-0.486042	-0.358951	0.100189	-0.007352	0.994941	0
2.30468	-0.472765	-0.330619	0.080952	-0.220401	0.972044	0
2.32674	-0.475342	-0.331961	0.076636	-0.229548	0.970276	0
2.35666	-0.476571	-0.332031	0.067985	-0.216059	0.974011	0
2.37436	-0.475771	-0.331072	0.058845	-0.200297	0.977966	0
2.48406	-0.465094	-0.330774	0.038907	-0.053551	0.997807	0
2.5114	-0.472599	-0.331445	0.035429	-0.041626	0.998505	0
2.53038	-0.464731	-0.331628	0.021983	-0.02747	0.999381	0
2.56188	-0.463192	-0.330971	0.017121	-0.030759	0.99938	0
2.89839	-0.474146	-0.331487	-0.114499	0.281988	-0.952561	0
2.91923	-0.463816	-0.332657	-0.124119	0.276077	-0.953088	0
2.94932	-0.467124	-0.33861	-0.126387	0.264226	-0.956144	0
2.97281	-0.465852	-0.343793	-0.121482	0.247777	-0.961171	0
3.00835	-0.463616	-0.352397	-0.10572	0.229512	-0.967547	0
3.04573	-0.462654	-0.357132	0.071832	-0.201226	0.976907	0
3.06592	-0.45762	-0.358468	0.060558	-0.191251	0.979671	0
3.10337	-0.465468	-0.356992	0.04342	-0.138626	0.989393	0
3.13208	-0.460398	-0.356833	0.042074	-0.117065	0.992233	0
3.16788	-0.464634	-0.356573	0.045023	-0.072935	0.99632	0
3.19411	-0.464904	-0.355113	0.054476	-0.04246	0.997612	0
3.22574	-0.468635	-0.357388	0.078271	-0.014967	0.99682	0
3.24684	-0.453109	-0.359183	-0.125255	-0.000542	-0.992124	0
2.5033	-0.435202	-0.332196	0.062969	-0.058853	0.996279	0
2.53497	-0.434376	-0.333882	0.047572	-0.045192	0.997845	0
2.56651	-0.435092	-0.333768	0.018055	-0.027909	0.999447	0
2.58958	-0.425568	-0.332317	0.014334	-0.01292	0.999814	0
2.96001	-0.435897	-0.335621	-0.132849	0.263037	-0.955595	0
2.98581	-0.434184	-0.340292	-0.124404	0.249268	-0.960411	0
3.01406	-0.438509	-0.346257	-0.11084	0.238146	-0.964884	0
3.04559	-0.433549	-0.347196	-0.089801	0.236534	-0.967464	0
3.07803	-0.438914	-0.35081	0.071256	-0.198748	0.977457	0
3.10508	-0.434648	-0.348804	0.065454	-0.159572	0.985014	0
3.13318	-0.435569	-0.347896	0.060952	-0.120075	0.990892	0
3.23095	-0.435344	-0.355459	-0.115032	0.013914	-0.993264	0
3.25643	-0.444457	-0.359841	-0.152167	-0.00537	-0.98834	0
2.50378	-0.406729	-0.331867	0.09485	-0.076164	0.992574	0
2.53412	-0.404887	-0.335822	0.089078	-0.037514	0.995318	0
2.5644	-0.405299	-0.335665	0.072677	-0.011565	0.997288	0
2.59418	-0.404096	-0.333267	0.022392	0.002542	0.999746	0
2.96341	-0.414781	-0.332268	-0.135197	0.274654	-0.951991	0
2.98642	-0.419289	-0.334661	-0.12586	0.265707	-0.955803	0
3.01871	-0.415067	-0.334974	-0.115789	0.256292	-0.959639	0
3.05207	-0.418562	-0.337072	-0.10399	0.236345	-0.966089	0
3.0677	-0.413306	-0.334652	-0.107631	0.21667	-0.970294	0
3.23112	-0.405289	-0.350347	-0.162241	-0.002535	-0.986748	0
3.26007	-0.403244	-0.353559	-0.198021	-0.02717	-0.979821	0
3.277	-0.390698	-0.356717	-0.219629	-0.039476	-0.974784	0
2.50753	-0.373531	-0.331748	-0.140618	0.063163	-0.988047	0
2.5374	-0.37526	-0.334253	-0.143804	0.021626	-0.98937	0
2.56751	-0.375438	-0.334397	-0.14131	-0.002543	-0.989962	0
2.59713	-0.376879	-0.333132	0.059108	0.033056	0.997704	0
3.16795	-0.382374	-0.333665	-0.13784	0.07313	-0.987751	0
3.19679	-0.380058	-0.338558	-0.151229	0.027576	-0.988114	0
3.22128	-0.375644	-0.345359	-0.189661	-0.011997	-0.981776	0
3.24902	-0.37509	-0.35385	-0.210187	-0.029824	-0.977206	0
3.27925	-0.38446	-0.356851	-0.236201	-0.046304	-0.9706	0
2.50607	-0.352249	-0.33154	-0.176087	0.041128	-0.983515	0
2.53594	-0.35258	-0.33173	-0.190754	0.009797	-0.981589	0
2.5676	-0.355313	-0.331854	-0.189186	-0.011752	-0.981871	0
3.19238	-0.337007	-0.337507	-0.21637	-0.014039	-0.97621	0
3.22741	-0.352726	-0.346088	-0.212296	-0.029737	-0.976753	0
3.24812	-0.342442	-0.353907	-0.241975	-0.062638	-0.968259	0
3.16661	-0.306602	-0.33305	-0.244584	-0.039017	-0.968843	0
3.19864	-0.307964	-0.346658	-0.251599	-0.063061	-0.965775	0
3.22467	-0.32318	-0.351277	-0.249848	-0.071675	-0.965629	0
3.24583	-0.315139	-0.358496	-0.253817	-0.082193	-0.963754	0
2.54755	-0.270623	-0.330944	-0.216126	-0.069531	-0.973886	0
2.56618	-0.277416	-0.334757	-0.2243	-0.059973	-0.972673	0
2.5943	-0.284574	-0.340416	-0.234917	-0.064018	-0.969905	0
2.62292	-0.284565	-0.345374	-0.152124	-0.095364	-0.98375	0
2.65399	-0.284955	-0.349651	0.033195	0.136661	0.990062	0
3.13794	-0.282449	-0.332357	-0.266793	-0.048974	-0.962509	0
3.16483	-0.284055	-0.343869	-0.264433	-0.073347	-0.961611	0
3.18703	-0.282695	-0.352733	-0.270349	-0.096986	-0.957865	0
3.21625	-0.296924	-0.354259	-0.26995	-0.103453	-0.957301	0
2.54033	-0.249955	-0.335522	-0.220229	-0.082467	-0.971956	0
2.56641	-0.254464	-0.342328	-0.222321	-0.079216	-0.97175	0
2.59538	-0.255665	-0.348166	-0.232111	-0.080334	-0.969366	0
2.62345	-0.254406	-0.352081	-0.222586	-0.078952	-0.971711	0
2.65452	-0.255642	-0.35573	0.082157	0.125	0.988749	0
3.08312	-0.248394	-0.330869	-0.26971	-0.033088	-0.962373	0
3.10429	-0.25957	-0.33616	-0.271418	-0.052368	-0.961036	0
3.12828	-0.258305	-0.34468	-0.273394	-0.066952	-0.959569	0
3.15912	-0.259631	-0.356308	-0.286994	-0.094372	-0.953272	0
3.18241	-0.269319	-0.357899	-0.279414	-0.103236	-0.954605	0
2.53478	-0.223068	-0.343778	-0.215782	-0.107457	-0.970511	0
2.56481	-0.226177	-0.348474	-0.216777	-0.102645	-0.97081	0
2.59347	-0.225208	-0.351957	-0.234699	-0.089414	-0.967947	0
2.62431	-0.225162	-0.356215	-0.222	-0.090095	-0.970875	0
2.65412	-0.228766	-0.358575	-0.196167	-0.084146	-0.976953	0
3.08712	-0.232759	-0.337072	-0.286358	-0.059145	-0.956295	0
3.10206	-0.218432	-0.341785	-0.29346	-0.070282	-0.953384	0
3.13099	-0.224946	-0.347923	-0.28609	-0.073787	-0.955357	0
3.16747	-0.214877	-0.356668	-0.279549	-0.066068	-0.957856	0
2.50437	-0.194056	-0.347094	-0.228739	-0.127196	-0.965142	0
2.53256	-0.195366	-0.347988	-0.222491	-0.123576	-0.967071	0
2.56462	-0.195307	-0.350743	-0.214157	-0.115128	-0.969991	0
2.59556	-0.194438	-0.355673	-0.202508	-0.101771	-0.973978	0
2.61799	-0.197442	-0.358186	-0.195717	-0.09354	-0.976189	0
3.09802	-0.197417	-0.336515	-0.296541	-0.06061	-0.953095	0
3.13078	-0.194784	-0.343186	-0.290124	-0.056199	-0.955338	0
3.16453	-0.193318	-0.352102	-0.278044	-0.051231	-0.959201	0
3.19794	-0.193327	-0.358609	-0.261029	-0.043606	-0.964346	0
2.47772	-0.164798	-0.347262	-0.237398	-0.131158	-0.962517	0
2.50611	-0.165708	-0.348307	-0.230219	-0.138134	-0.963285	0
2.53408	-0.164938	-0.347487	-0.223257	-0.129979	-0.966055	0
2.56437	-0.163503	-0.35105	-0.197882	-0.109246	-0.974119	0
2.59206	-0.166119	-0.35655	-0.184588	-0.097038	-0.978014	0
2.6196	-0.172262	-0.359321	-0.189575	-0.091484	-0.977595	0
3.10353	-0.16475	-0.332467	-0.288563	-0.044601	-0.956422	0
3.1379	-0.167315	-0.342461	-0.284268	-0.041042	-0.957866	0
3.16472	-0.162129	-0.350952	-0.275255	-0.030264	-0.960895	0
3.19426	-0.160206	-0.35725	-0.256163	-0.014396	-0.966526	0
2.42038	-0.135588	-0.331959	-0.239209	-0.120766	-0.963429	0
2.44876	-0.134758	-0.338078	-0.242438	-0.12967	-0.961462	0
2.47662	-0.136606	-0.343568	-0.233401	-0.122325	-0.964656	0
2.5065	-0.134977	-0.345995	-0.205126	-0.089736	-0.974613	0
2.53592	-0.13442	-0.347478	-0.18224	-0.079605	-0.980026	0
2.56406	-0.135738	-0.351508	-0.168357	-0.071691	-0.983116	0
2.58869	-0.134502	-0.357078	-0.160439	-0.066992	-0.98477	0
3.08914	-0.141755	-0.330941	-0.279607	-0.035078	-0.959473	0
3.10761	-0.131614	-0.335436	-0.272929	-0.014652	-0.961923	0
3.13859	-0.134592	-0.344605	-0.27031	-0.017261	-0.962619	0
3.16825	-0.1394	-0.354325	-0.263619	-0.005646	-0.96461	0
3.18389	-0.136498	-0.357326	-0.256558	-0.001428	-0.966528	0
2.41902	-0.116587	-0.330928	-0.240374	-0.123262	-0.962822	0
2.44359	-0.103049	-0.33445	-0.233583	-0.114238	-0.965603	0
2.47208	-0.10526	-0.338694	-0.207652	-0.084926	-0.974509	0
2.50346	-0.105146	-0.342621	-0.181578	-0.050777	-0.982065	0
2.53364	-0.104927	-0.347892	-0.171531	-0.031697	-0.984669	0
2.56288	-0.105657	-0.354377	-0.157501	-0.035349	-0.986886	0
2.58802	-0.107371	-0.358478	-0.152671	-0.038172	-0.98754	0
3.08917	-0.111747	-0.330783	-0.265691	-0.024582	-0.963745	0
3.10831	-0.103526	-0.337078	-0.267494	-0.026825	-0.963186	0
3.13601	-0.105621	-0.345695	-0.26293	-0.018982	-0.964628	0
3.16727	-0.109274	-0.353975	-0.25709	-0.009244	-0.966343	0
3.18631	-0.099688	-0.357521	-0.253199	-0.013312	-0.967323	0
2.42413	-0.077223	-0.331283	-0.217354	-0.096099	-0.971351	0
2.44782	-0.076543	-0.332859	-0.203374	-0.080492	-0.975787	0
2.47359	-0.074655	-0.335885	-0.175622	-0.034059	-0.983868	0
2.50431	-0.074818	-0.344017	-0.17393	-0.028653	-0.984341	0
2.53374	-0.07481	-0.351063	-0.170742	-0.02345	-0.985037	0
2.56031	-0.074577	-0.35807	-0.159654	-0.023612	-0.986891	0
2.58524	-0.089757	-0.35837	-0.151216	-0.026437	-0.988147	0
3.0845	-0.082728	-0.331949	-0.26114	-0.043634	-0.964314	0
3.10032	-0.070928	-0.335306	-0.259366	-0.063841	-0.963667	0
3.13673	-0.069865	-0.345512	-0.256581	-0.052952	-0.965071	0
3.16482	-0.078523	-0.354356	-0.254118	-0.033267	-0.966601	0
3.18981	-0.089978	-0.357729	-0.247479	-0.022904	-0.968623	0
2.44842	-0.045588	-0.332461	-0.172632	-0.036352	-0.984315	0
2.47375	-0.044273	-0.337534	-0.171817	-0.034361	-0.984529	0
2.50481	-0.046237	-0.346263	-0.171692	-0.032847	-0.984603	0
2.53627	-0.044144	-0.354161	-0.165247	-0.026359	-0.9859	0
2.56202	-0.043313	-0.357191	-0.152071	-0.021114	-0.988144	0
2.59403	-0.038587	-0.358514	0.12983	0.019376	0.991347	0
3.08351	-0.036765	-0.335555	-0.245872	-0.115024	-0.962453	0
3.10809	-0.046269	-0.339738	-0.252108	-0.091909	-0.963325	0
3.13839	-0.044916	-0.348143	-0.248306	-0.081028	-0.965287	0
3.16485	-0.042671	-0.35358	-0.240619	-0.081243	-0.967214	0
2.4278	-0.012334	-0.330792	-0.168443	-0.034747	-0.985099	0
2.44627	-0.014851	-0.335046	-0.168463	-0.034742	-0.985096	0
2.47354	-0.01464	-0.34265	-0.168299	-0.036478	-0.985061	0
2.50372	-0.015128	-0.350416	-0.165549	-0.033934	-0.985618	0
2.53646	-0.015728	-0.357023	-0.157177	-0.02988	-0.987118	0
2.56488	-0.014372	-0.356697	-0.142386	-0.024347	-0.989512	0
2.59713	-0.015289	-0.358441	0.119202	0.018623	0.992695	0
2.61116	-0.012664	-0.35977	0.109356	0.018289	0.993834	0
3.05594	-0.002946	-0.332284	-0.211801	-0.180768	-0.96045	0
3.08012	-0.017489	-0.335392	-0.23634	-0.142604	-0.961149	0
3.10672	-0.014351	-0.341243	-0.234823	-0.130313	-0.963264	0
3.13163	-0.0121	-0.345834	-0.231932	-0.122061	-0.965043	0
3.16146	-0.012901	-0.353675	-0.226914	-0.101217	-0.968641	0
3.18172	-0.019597	-0.356801	-0.229028	-0.087499	-0.969479	0
2.42675	0.000432	-0.33061	-0.167671	-0.037437	-0.985132	0
2.44651	0.012151	-0.338153	-0.16299	-0.035738	-0.98598	0
2.47417	0.015337	-0.347143	-0.157871	-0.039436	-0.986672	0
2.50521	0.015396	-0.353678	-0.15705	-0.037532	-0.986877	0
2.53735	0.016945	-0.356734	-0.143645	-0.033712	-0.989055	0
2.56534	0.014284	-0.35594	0.135361	0.026841	0.990433	0
2.59164	0.015272	-0.357211	0.113776	0.02187	0.993266	0
2.61602	0.01628	-0.35964	0.09969	0.01696	0.994874	0
3.04991	0.01784	-0.332377	-0.187522	-0.218571	-0.957634	0
3.07431	0.012857	-0.337178	-0.204674	-0.18859	-0.960491	0
3.10594	0.01516	-0.344784	-0.206939	-0.166152	-0.964142	0
3.13777	0.01244	-0.351696	-0.215348	-0.14347	-0.965941	0
3.16032	0.016903	-0.357432	-0.210975	-0.139943	-0.967422	0
2.45628	0.041315	-0.341572	-0.155927	-0.040245	-0.986948	0
2.47467	0.044484	-0.347535	-0.155736	-0.041548	-0.986925	0
2.50386	0.044928	-0.353804	-0.145341	-0.040463	-0.988554	0
2.53575	0.0451	-0.356411	0.133945	0.036503	0.990316	0
2.56441	0.045282	-0.356013	0.123447	0.02982	0.991903	0
2.5938	0.045508	-0.357915	0.101258	0.022753	0.9946	0
2.61388	0.050784	-0.359368	0.08896	0.019733	0.99584	0
3.01964	0.054016	-0.332967	-0.157521	-0.247967	-0.955876	0
3.04555	0.045533	-0.336103	-0.173779	-0.235275	-0.956267	0
3.07379	0.046494	-0.342561	-0.182871	-0.222939	-0.957526	0
3.10806	0.041449	-0.350831	-0.193539	-0.186091	-0.963282	0
3.13031	0.043851	-0.354476	-0.197394	-0.174309	-0.964703	0
3.15727	0.035373	-0.358785	-0.208988	-0.147842	-0.966678	0
2.48215	0.068515	-0.350385	-0.142772	-0.043037	-0.98882	0
2.50514	0.073629	-0.355384	-0.142164	-0.03737	-0.989137	0
2.53712	0.069351	-0.358173	0.126002	0.036157	0.991371	0
2.56794	0.071389	-0.357551	0.101002	0.027449	0.994508	0
2.59113	0.075243	-0.357378	0.087362	0.021423	0.995946	0
2.61711	0.073248	-0.359512	0.075728	0.01699	0.996984	0
2.92244	0.079974	-0.338318	0.063993	0.240898	0.968438	0
2.95709	0.078042	-0.340525	-0.110855	-0.255622	-0.9604	0
2.98571	0.078091	-0.342977	-0.139937	-0.254827	-0.956808	0
3.01362	0.074689	-0.343219	-0.142739	-0.250229	-0.957607	0
3.04319	0.07655	-0.348163	-0.146316	-0.239845	-0.959722	0
3.07286	0.075735	-0.35274	-0.157173	-0.222241	-0.96224	0
3.10193	0.068695	-0.355428	-0.17477	-0.199459	-0.964195	0
3.12561	0.064217	-0.356239	-0.184325	-0.184454	-0.965402	0
2.50488	0.094729	-0.358361	0.137903	0.030609	0.989973	0
2.5781	0.095287	-0.358589	0.089083	0.020502	0.995813	0
2.59028	0.097764	-0.358435	0.081263	0.015816	0.996567	0
2.61812	0.09659	-0.358928	0.069057	0.013198	0.997525	0
2.92774	0.103575	-0.354907	0.060946	0.223754	0.972738	0
2.95555	0.099183	-0.355317	0.103441	0.237504	0.965863	0
2.98691	0.097018	-0.357099	-0.132978	-0.240631	-0.961464	0
3.01564	0.09584	-0.357793	-0.132823	-0.241421	-0.961288	0
3.05526	0.096328	-0.358497	-0.135701	-0.229127	-0.963891	0
3.06924	0.094006	-0.35861	-0.136753	-0.221044	-0.965628	0
2.58566	0.134094	-0.35879	0.073361	0.003448	0.997299	0
2.78838	0.139505	-0.357532	-0.047018	0.045562	0.997854	0
2.80619	0.134261	-0.356488	-0.056447	0.063141	0.996407	0
2.92235	0.138176	-0.3569	0.04147	0.17085	0.984424	0
2.80868	0.163536	-0.357597	-0.052318	0.043581	0.997679	0
2.83407	0.165845	-0.353737	-0.047778	0.05328	0.997436	0
2.86411	0.163567	-0.352452	-0.034176	0.074302	0.99665	0
2.89492	0.16538	-0.356098	-0.00464	0.089956	0.995935	0
2.92409	0.163506	-0.35804	0.037443	0.128327	0.991025	0
2.53313	0.198086	-0.358799	0.135593	-0.06346	0.98873	0
2.81317	0.192607	-0.358287	-0.043087	0.016443	0.998936	0
2.83259	0.194801	-0.355912	-0.040437	0.031632	0.998681	0
2.8625	0.19497	-0.356591	-0.023877	0.031358	0.999223	0
2.8924	0.193596	-0.358517	-0.000492	0.045806	0.99895	0
2.54084	0.224397	-0.357005	0.142729	-0.0883	0.985815	0
2.5614	0.235987	-0.359107	0.13493	-0.095113	0.98628	0
2.64181	0.233993	-0.359725	0.085111	-0.073332	0.993669	0
2.81569	0.2248	-0.359086	-0.039682	0.016669	0.999073	0
2.83342	0.219283	-0.35736	-0.031635	0.0151	0.999385	0
2.86067	0.224485	-0.357818	-0.023804	0.015084	0.999603	0
2.88483	0.225956	-0.358213	-0.005442	0.019352	0.999798	0
2.54142	0.252372	-0.351483	-0.152213	0.112313	-0.981945	0
2.56218	0.254578	-0.35701	0.140137	-0.115024	0.983428	0
2.58163	0.264816	-0.359418	0.138267	-0.117454	0.983406	0
2.64501	0.242861	-0.359915	0.086992	-0.079139	0.993061	0
2.8642	0.251998	-0.35859	-0.03018	0.016971	0.9994	0
2.89994	0.245452	-0.359259	0.009276	0.005714	0.999941	0
2.54727	0.278398	-0.350431	-0.157181	0.134263	-0.9784	0
2.5654	0.285241	-0.355904	-0.158635	0.141538	-0.97714	0
2.58435	0.282938	-0.358982	0.149252	-0.139977	0.978841	0
2.95384	0.277337	-0.359869	0.054398	-0.014418	0.998415	0
2.54357	0.319845	-0.336918	-0.177743	0.147784	-0.972917	0
2.56633	0.316319	-0.347088	-0.168937	0.152943	-0.973688	0
2.5935	0.317778	-0.354701	-0.169705	0.153249	-0.973507	0
2.62415	0.325848	-0.356347	-0.17787	0.136879	-0.974488	0
2.65621	0.323466	-0.35734	-0.169151	0.112328	-0.979168	0
2.68044	0.32246	-0.358349	-0.142316	0.081973	-0.986421	0
2.86496	0.328495	-0.358844	-0.064042	0.052193	0.996581	0
2.89528	0.320784	-0.358079	-0.046023	0.034888	0.998331	0
2.91194	0.324904	-0.359397	-0.025284	0.020681	0.999466	0
2.94426	0.319584	-0.358909	0.015779	-0.000543	0.999875	0
2.99935	0.305349	-0.359798	0.074692	-0.020737	0.996991	0
3.00182	0.312184	-0.359945	0.075944	-0.020049	0.996911	0
2.54773	0.331725	-0.332019	-0.186451	0.144719	-0.971747	0
2.56652	0.339803	-0.334995	-0.191053	0.149612	-0.970111	0
2.59338	0.344769	-0.340554	-0.196622	0.14757	-0.96931	0
2.62705	0.346144	-0.34886	-0.194759	0.131121	-0.972047	0
2.65434	0.344298	-0.351983	-0.183363	0.1168	-0.976082	0
2.68477	0.346814	-0.355242	-0.159568	0.069693	-0.984724	0
2.71142	0.348268	-0.358495	-0.13879	0.047518	-0.989181	0
2.87221	0.34621	-0.358546	-0.065034	0.05148	0.996554	0
2.89626	0.347596	-0.356072	-0.063875	0.04319	0.997023	0
2.92407	0.346705	-0.356788	-0.03361	0.031534	0.998937	0
2.95539	0.346578	-0.35947	0.026358	-0.001429	0.999652	0
2.98945	0.349585	-0.358689	0.066628	-0.010257	0.997725	0
2.597	0.373273	-0.334687	-0.211006	0.126884	-0.969215	0
2.62544	0.373083	-0.341882	-0.210689	0.122608	-0.969834	0
2.65394	0.376154	-0.347078	-0.221977	0.107291	-0.969131	0
2.68551	0.374066	-0.353655	-0.193339	0.074031	-0.978335	0
2.71115	0.372401	-0.357589	-0.16483	0.043678	-0.985354	0
2.87567	0.370803	-0.358777	-0.066145	0.048137	0.996648	0
2.89496	0.374791	-0.356676	-0.069621	0.041728	0.9967	0
2.9239	0.374348	-0.35515	-0.046889	0.034412	0.998307	0
2.95196	0.373783	-0.357758	-0.010285	0.022633	0.999691	0
2.99029	0.37236	-0.358524	0.059744	0.001646	0.998212	0
2.6045	0.402242	-0.332086	-0.229954	0.112118	-0.966722	0
2.62419	0.404235	-0.336815	-0.236255	0.102811	-0.966237	0
2.65444	0.40532	-0.34599	-0.236653	0.087088	-0.967683	0
2.68338	0.403517	-0.353965	-0.2256	0.069915	-0.971708	0
2.70035	0.391704	-0.357025	-0.201259	0.056751	-0.977893	0
2.89565	0.394841	-0.357524	-0.073687	0.042176	0.996389	0
2.91981	0.401787	-0.358396	-0.060456	0.03536	0.997544	0
2.94793	0.393131	-0.358492	-0.02553	0.027834	0.999287	0
2.62491	0.433069	-0.334663	-0.253638	0.091418	-0.962969	0
2.65432	0.435901	-0.34472	-0.249716	0.072079	-0.965633	0
2.68375	0.433812	-0.354351	-0.241477	0.067919	-0.968027	0
2.70074	0.439828	-0.35962	-0.231983	0.058481	-0.97096	0
2.91633	0.423869	-0.359166	-0.069153	0.032155	0.997088	0
2.96215	0.449748	-0.359153	-0.005715	0.012549	0.999905	0
2.62595	0.466072	-0.33507	-0.258558	0.084598	-0.962284	0
2.65364	0.464622	-0.344114	-0.255343	0.072617	-0.96412	0
2.68416	0.466941	-0.354898	-0.246179	0.063834	-0.96712	0
2.70275	0.454313	-0.359625	-0.235314	0.060116	-0.970058	0
2.96252	0.465864	-0.358967	-0.000502	0.000415	1	0
2.97653	0.464211	-0.358186	0.018615	0.00236	0.999824	0
2.62625	0.496146	-0.334419	-0.25364	0.084251	-0.963623	0
2.65425	0.496753	-0.342919	-0.247974	0.071666	-0.966112	0
2.68643	0.494941	-0.354383	-0.231696	0.074733	-0.969913	0
2.71248	0.49917	-0.359954	-0.209156	0.083056	-0.974349	0
2.95487	0.493414	-0.358117	-0.003268	-0.012393	0.999918	0
2.97497	0.497162	-0.359707	0.018286	-0.010602	0.999777	0
2.60796	0.52671	-0.332746	-0.250642	0.081624	-0.964633	0
2.62538	0.525034	-0.333807	-0.246755	0.079344	-0.965824	0
2.65543	0.526586	-0.33984	-0.233756	0.081361	-0.968885	0
2.68552	0.525319	-0.347241	-0.223608	0.086272	-0.970854	0
2.71119	0.527813	-0.353944	-0.202319	0.100938	-0.974104	0
2.74026	0.538205	-0.359013	-0.169	0.11895	-0.978412	0
2.96119	0.524738	-0.358468	0.013342	-0.019031	0.99973	0
2.97311	0.536783	-0.359178	0.027221	-0.023425	0.999355	0
3.41139	0.536499	-0.358615	-0.059077	-0.354486	0.933193	0
3.43665	0.537529	-0.358202	-0.038651	-0.357893	0.932962	0
3.46787	0.534806	-0.358174	-0.022455	-0.346012	0.937961	0
3.54764	0.527218	-0.359256	0.010993	-0.288083	0.957542	0
2.62422	0.550424	-0.331393	-0.232739	0.08647	-0.968688	0
2.65466	0.554593	-0.335664	-0.222799	0.093451	-0.970375	0
2.68421	0.555528	-0.340889	-0.213888	0.10309	-0.971403	0
2.71255	0.555856	-0.346511	-0.184569	0.121863	-0.975235	0
2.7445	0.55528	-0.354398	-0.157744	0.133924	-0.978356	0
2.77297	0.562385	-0.355893	0.125559	-0.143722	0.981621	0
2.7991	0.56646	-0.357167	0.078615	-0.141973	0.986744	0
2.83008	0.569666	-0.358588	0.03043	-0.112812	0.99315	0
2.96502	0.551754	-0.358536	0.020546	-0.029247	0.999361	0
2.97455	0.554775	-0.359261	0.034033	-0.029417	0.998988	0
3.34729	0.561306	-0.353168	-0.067552	-0.308859	0.948706	0
3.37489	0.557327	-0.350188	-0.059091	-0.334038	0.940705	0
3.40465	0.555968	-0.348995	-0.064789	-0.351161	0.934071	0
3.43219	0.553693	-0.351521	-0.040918	-0.360052	0.932035	0
3.46048	0.55485	-0.353697	-0.012932	-0.362899	0.931739	0
3.49239	0.557849	-0.356773	-0.005278	-0.340397	0.940267	0
3.52488	0.558271	-0.357315	0.021343	-0.326634	0.94491	0
3.55173	0.557475	-0.358282	0.031575	-0.301518	0.952938	0
3.59002	0.569759	-0.357947	0.040841	-0.289293	0.956369	0
3.61248	0.557741	-0.359194	0.044403	-0.287997	0.956601	0
3.64546	0.567004	-0.356891	0.036754	-0.294834	0.954841	0
3.68108	0.561043	-0.35753	0.038112	-0.281411	0.95883	0
2.63118	0.573905	-0.331234	-0.226059	0.092737	-0.969689	0
2.65473	0.574588	-0.3348	-0.217046	0.101131	-0.970909	0
2.68679	0.577808	-0.341784	-0.200741	0.115989	-0.972754	0
2.71542	0.578554	-0.345317	-0.18108	0.126017	-0.975361	0
2.7464	0.582615	-0.350762	-0.156888	0.147841	-0.976488	0
2.7756	0.583051	-0.353141	0.119572	-0.159535	0.979924	0
2.80676	0.586389	-0.355623	0.064996	-0.14948	0.986626	0
2.83356	0.586696	-0.356655	0.0295	-0.113264	0.993127	0
2.86218	0.588665	-0.357812	0.009224	-0.091958	0.99572	0
2.89355	0.590522	-0.359076	0.001651	-0.071818	0.997416	0
2.92716	0.588652	-0.358558	0.015166	-0.046106	0.998821	0
2.95816	0.585729	-0.357995	0.03427	-0.034503	0.998817	0
2.97792	0.588059	-0.358536	0.049304	-0.027453	0.998406	0
3.31914	0.589439	-0.351478	-0.090199	-0.29332	0.95175	0
3.34152	0.584886	-0.342045	-0.074581	-0.317078	0.945462	0
3.37089	0.584108	-0.337675	-0.06172	-0.335745	0.939929	0
3.4018	0.583272	-0.338188	-0.0647	-0.354839	0.932686	0
3.4376	0.584919	-0.342276	-0.039301	-0.355391	0.933891	0
3.46873	0.586828	-0.345978	0.00211	-0.35549	0.934678	0
3.49832	0.58473	-0.349232	0.024222	-0.337529	0.941004	0
3.52432	0.586051	-0.351216	0.034049	-0.324675	0.945213	0
3.55509	0.585121	-0.353033	0.038771	-0.311142	0.949572	0
3.58649	0.587096	-0.353297	0.042393	-0.303592	0.951859	0
3.61206	0.585912	-0.353129	0.038356	-0.30131	0.952754	0
3.64592	0.585573	-0.352556	0.03828	-0.295312	0.954634	0
3.67627	0.584484	-0.350923	0.037392	-0.294889	0.9548	0
2.81778	0.600071	-0.355774	0.05624	-0.139338	0.988647	0
2.83682	0.602266	-0.356194	0.030574	-0.115045	0.99289	0
2.86364	0.60348	-0.357673	0.014316	-0.097481	0.995135	0
2.8962	0.605193	-0.359103	0.004523	-0.076069	0.997092	0
2.93101	0.605963	-0.35873	0.017318	-0.052171	0.998488	0
2.96681	0.60946	-0.358153	0.045248	-0.033498	0.998414	0
2.97603	0.610979	-0.357224	0.050947	-0.026279	0.998356	0
3.02357	0.619914	-0.359321	0.084551	-0.011891	0.996348	0
3.03037	0.624527	-0.359965	0.085168	-0.012866	0.996283	0
3.29489	0.619219	-0.356262	-0.109732	-0.263562	0.958381	0
3.31308	0.614927	-0.345656	-0.107654	-0.287875	0.951598	0
3.34184	0.614244	-0.333817	-0.091403	-0.319739	0.943087	0
3.43784	0.61182	-0.334818	-0.037963	-0.341475	0.939124	0
3.46252	0.611185	-0.337591	-0.004766	-0.350308	0.936622	0
3.49707	0.615498	-0.340161	0.035409	-0.336306	0.941087	0
3.52637	0.613969	-0.342147	0.039857	-0.319724	0.946672	0
3.5538	0.614078	-0.342579	0.050111	-0.307506	0.950226	0
3.58489	0.615431	-0.341148	0.043561	-0.305612	0.951159	0
3.61793	0.614276	-0.343069	0.04205	-0.306958	0.950794	0
3.64499	0.613818	-0.342723	0.043271	-0.30799	0.950405	0
3.67082	0.616031	-0.340893	0.039075	-0.297481	0.953928	0
3.29649	0.642962	-0.353787	-0.106584	-0.285997	0.952284	0
3.30814	0.642289	-0.341312	-0.107438	-0.299381	0.948066	0
3.34084	0.63181	-0.3302	-0.090323	-0.322582	0.942222	0
3.4945	0.634182	-0.332421	0.035964	-0.329039	0.943631	0
3.52797	0.638195	-0.332836	0.0443	-0.315466	0.947902	0
3.55309	0.639917	-0.333837	0.045291	-0.308496	0.950147	0
3.58534	0.641445	-0.334391	0.043493	-0.304962	0.951371	0
3.62107	0.647332	-0.336715	0.046583	-0.309074	0.949896	0
3.63992	0.645061	-0.335991	0.044268	-0.309179	0.949973	0
3.67629	0.643386	-0.336378	0.042497	-0.305378	0.951283	0
3.70567	0.648453	-0.335938	0.039082	-0.299628	0.953255	0
3.59392	0.66616	-0.33246	0.044887	-0.306518	0.950806	0
3.61843	0.664987	-0.33382	0.046782	-0.308355	0.95012	0
3.638	0.667657	-0.331921	0.047124	-0.31039	0.94944	0
3.68041	0.668089	-0.332815	0.04259	-0.305347	0.951288	0
3.71472	0.672788	-0.330464	0.039183	-0.303047	0.95217	0
2.20416	-0.705756	-0.32105	0.069385	-0.077937	0.994541	0
2.23607	-0.704951	-0.322913	0.062422	-0.066292	0.995846	0
2.26452	-0.704404	-0.324913	0.047129	-0.045349	0.997859	0
2.18504	-0.680727	-0.318231	0.082005	-0.094719	0.992121	0
2.20573	-0.674943	-0.321709	0.077917	-0.086625	0.993189	0
2.23464	-0.673996	-0.324332	0.065009	-0.072551	0.995244	0
2.26349	-0.676409	-0.326675	0.059333	-0.061959	0.996314	0
2.29357	-0.68176	-0.328219	0.038918	-0.032126	0.998726	0
2.21073	-0.647112	-0.324665	0.082045	-0.094731	0.992116	0
2.23498	-0.647316	-0.32743	0.077898	-0.086629	0.99319	0
2.25945	-0.655916	-0.327914	0.065007	-0.072547	0.995244	0
2.52854	-0.654105	-0.32875	-0.002361	-0.059711	0.998213	0
2.608	-0.64258	-0.32829	0.03383	-0.053936	0.997971	0
2.61041	-0.635893	-0.328433	0.033823	-0.053952	0.997971	0
2.21551	-0.623074	-0.326448	0.096011	-0.11477	0.988741	0
2.23207	-0.616828	-0.327927	0.094706	-0.10817	0.989611	0
2.23796	-0.586506	-0.327255	0.102414	-0.118319	0.98768	0
2.25601	-0.57459	-0.32822	0.099101	-0.116649	0.988217	0
2.23954	-0.555965	-0.324835	-0.130586	0.147476	-0.980407	0
2.26216	-0.552857	-0.327546	0.104851	-0.121314	0.987061	0
2.35199	-0.544208	-0.329274	0.042056	-0.117334	0.992202	0
2.38663	-0.547755	-0.328873	0.016068	-0.1095	0.993857	0
2.4141	-0.548485	-0.328639	-0.000214	-0.091239	0.995829	0
2.54738	-0.560409	-0.32989	0.004454	-0.042701	0.999078	0
2.56613	-0.555842	-0.327869	0.005535	-0.03917	0.999217	0
2.58385	-0.548511	-0.329236	0.012957	-0.037644	0.999207	0
2.24651	-0.528916	-0.324878	-0.14127	0.160139	-0.976933	0
2.26134	-0.527098	-0.326882	-0.124026	0.167202	-0.978091	0
2.35853	-0.52426	-0.32839	0.036611	-0.15789	0.986778	0
2.38542	-0.524511	-0.328291	0.025762	-0.146452	0.988882	0
2.41352	-0.52392	-0.327417	0.00986	-0.12584	0.992002	0
2.44417	-0.522376	-0.327812	0.00693	-0.10126	0.994836	0
2.47024	-0.521584	-0.329811	0.003281	-0.06651	0.99778	0
2.51484	-0.515076	-0.328443	0.009255	-0.039757	0.999167	0
2.54217	-0.526366	-0.328786	0.008826	-0.036684	0.999288	0
2.56478	-0.524062	-0.327821	0.007682	-0.032447	0.999444	0
2.5916	-0.521004	-0.327934	0.006048	-0.036261	0.999324	0
2.6297	-0.514783	-0.328466	-0.000206	-0.057007	0.998374	0
2.66397	-0.513821	-0.328358	0.006157	-0.116219	0.993205	0
2.6814	-0.513235	-0.329792	0.007452	-0.146514	0.989181	0
2.73732	-0.510045	-0.326924	0.039818	-0.239011	0.9702	0
2.83047	-0.511941	-0.329957	-0.07036	0.269931	-0.960306	0
2.25808	-0.496797	-0.32658	-0.109586	0.195011	-0.97466	0
2.2889	-0.482612	-0.32945	0.082007	-0.218964	0.972281	0
2.36302	-0.50097	-0.328775	0.04041	-0.194537	0.980062	0
2.39321	-0.499383	-0.328483	0.029454	-0.162562	0.986259	0
2.41561	-0.495298	-0.327137	0.037401	-0.152114	0.987655	0
2.44239	-0.492188	-0.326383	0.035483	-0.111887	0.993087	0
2.4654	-0.496112	-0.329273	0.022613	-0.083858	0.996221	0
2.50353	-0.493897	-0.329245	0.014968	-0.045247	0.998864	0
2.5354	-0.495237	-0.328578	0.013822	-0.028973	0.999485	0
2.56403	-0.494951	-0.327181	0.008403	-0.029828	0.99952	0
2.59254	-0.494942	-0.324165	0.000468	-0.030893	0.999523	0
2.62647	-0.494095	-0.323485	-0.01529	-0.05619	0.998303	0
2.68617	-0.494476	-0.324698	-0.00877	-0.159064	0.987229	0
2.71402	-0.493093	-0.321693	0.005463	-0.210481	0.977583	0
2.7441	-0.494483	-0.323305	0.037803	-0.248351	0.967932	0
2.77301	-0.492204	-0.322718	0.052933	-0.261617	0.963719	0
2.80398	-0.495931	-0.323587	-0.064863	0.27067	-0.960485	0
2.83339	-0.49254	-0.32367	-0.081945	0.276833	-0.957418	0
2.86466	-0.492375	-0.326751	-0.100902	0.27902	-0.954969	0
2.26932	-0.465556	-0.323128	0.090477	-0.203906	0.974801	0
2.29467	-0.462464	-0.324	0.082784	-0.208464	0.97452	0
2.32367	-0.462055	-0.324755	0.076961	-0.214798	0.973621	0
2.35607	-0.461746	-0.323261	0.077985	-0.22567	0.971078	0
2.38577	-0.465452	-0.322274	0.06661	-0.184896	0.980498	0
2.41519	-0.466518	-0.324953	0.063809	-0.138663	0.988282	0
2.44182	-0.466736	-0.325839	0.057948	-0.102164	0.993078	0
2.47357	-0.46499	-0.327081	0.047862	-0.066932	0.996609	0
2.50267	-0.46336	-0.327727	0.045152	-0.045852	0.997927	0
2.54058	-0.465541	-0.328263	0.018634	-0.029402	0.999394	0
2.57091	-0.465154	-0.326286	0.002359	-0.030146	0.999543	0
2.59593	-0.465227	-0.322794	-0.008055	-0.034811	0.999361	0
2.71318	-0.463358	-0.309317	-0.020312	-0.186909	0.982167	0
2.74598	-0.465319	-0.312115	0.003982	-0.230435	0.973079	0
2.77355	-0.465577	-0.311543	0.057283	-0.282505	0.957554	0
2.79833	-0.464164	-0.309797	-0.070057	0.288019	-0.955059	0
2.83503	-0.467483	-0.315188	-0.088797	0.291913	-0.952314	0
2.86274	-0.4649	-0.319467	-0.099551	0.293428	-0.950784	0
2.89285	-0.459139	-0.324878	-0.117793	0.290984	-0.949449	0
2.92108	-0.458158	-0.328375	-0.126071	0.278276	-0.952191	0
2.24835	-0.430408	-0.305625	-0.113156	0.193764	-0.974501	0
2.26485	-0.43557	-0.308816	-0.101426	0.195214	-0.975502	0
2.29561	-0.438762	-0.310277	-0.095285	0.197903	-0.97558	0
2.32302	-0.440423	-0.307662	0.08895	-0.201946	0.975349	0
2.44101	-0.434314	-0.316653	0.095222	-0.108553	0.98952	0
2.47269	-0.434178	-0.324503	0.064266	-0.078712	0.994824	0
2.50351	-0.440032	-0.328683	0.062926	-0.058852	0.996281	0
2.53773	-0.445941	-0.328325	0.040407	-0.042903	0.998262	0
2.57615	-0.441196	-0.328072	0.009281	-0.026632	0.999602	0
2.59661	-0.437885	-0.325926	-0.013977	-0.026867	0.999541	0
2.74721	-0.434336	-0.304415	-0.014496	-0.19118	0.981448	0
2.77544	-0.436042	-0.302599	0.023971	-0.254557	0.966761	0
2.81051	-0.438121	-0.304286	-0.081912	0.30657	-0.948317	0
2.83824	-0.434881	-0.307217	-0.094065	0.311088	-0.945715	0
2.86457	-0.434644	-0.313714	-0.102071	0.308266	-0.945808	0
2.89369	-0.43445	-0.321833	-0.121006	0.291902	-0.948763	0
2.91928	-0.434832	-0.326002	-0.130451	0.282589	-0.950329	0
2.94312	-0.424132	-0.329584	-0.135372	0.279705	-0.950494	0
2.2581	-0.419064	-0.301357	-0.113972	0.198227	-0.973507	0
2.41661	-0.405684	-0.305532	-0.140406	0.152248	-0.978318	0
2.44488	-0.405108	-0.314206	-0.119245	0.126091	-0.984826	0
2.47515	-0.404942	-0.323294	0.093645	-0.104492	0.990107	0
2.49941	-0.404206	-0.328084	0.09186	-0.078814	0.992648	0
2.77833	-0.413935	-0.301266	0.001053	-0.217319	0.9761	0
2.83966	-0.403598	-0.302732	-0.097285	0.316629	-0.943547	0
2.86711	-0.403647	-0.308325	-0.111996	0.313619	-0.942921	0
2.8948	-0.40272	-0.313858	-0.127232	0.303454	-0.944313	0
2.92207	-0.406732	-0.320272	-0.133412	0.293989	-0.946452	0
2.95595	-0.402819	-0.322721	-0.146386	0.264677	-0.953162	0
2.9817	-0.399761	-0.321975	-0.14392	0.2499	-0.957516	0
3.01107	-0.403601	-0.324313	-0.130007	0.240398	-0.961929	0
3.04254	-0.401208	-0.324993	-0.130507	0.218055	-0.967171	0
3.06998	-0.397368	-0.324398	-0.135753	0.204083	-0.969495	0
2.39205	-0.365466	-0.302063	-0.158165	0.180326	-0.970807	0
2.41526	-0.37347	-0.308236	-0.145015	0.163121	-0.975891	0
2.44428	-0.372987	-0.317206	-0.151685	0.132602	-0.979494	0
2.4755	-0.373766	-0.324272	-0.129797	0.098355	-0.98665	0
2.50213	-0.374386	-0.328077	-0.140645	0.063163	-0.988043	0
2.52674	-0.367265	-0.329937	-0.169492	0.033964	-0.984946	0
2.57042	-0.361712	-0.328673	-0.164253	-0.011666	-0.986349	0
2.60252	-0.369051	-0.32829	0.063708	0.037649	0.997258	0
2.89779	-0.380189	-0.304341	-0.132598	0.26676	-0.954598	0
2.92568	-0.379177	-0.305153	-0.146351	0.252107	-0.956568	0
2.95647	-0.38025	-0.308383	-0.159577	0.233047	-0.959283	0
2.98689	-0.381774	-0.308592	-0.156487	0.213303	-0.964372	0
3.01822	-0.375849	-0.308435	-0.153503	0.198325	-0.968041	0
3.04438	-0.380035	-0.31265	-0.148333	0.190661	-0.970384	0
3.15908	-0.368239	-0.326143	-0.152844	0.059926	-0.986432	0
2.27427	-0.338195	-0.301667	-0.124664	0.211726	-0.969346	0
2.29491	-0.33478	-0.30314	-0.131558	0.206907	-0.969475	0
2.32331	-0.337938	-0.30473	-0.134681	0.20122	-0.970243	0
2.35416	-0.342571	-0.310145	-0.143629	0.184818	-0.972221	0
2.3858	-0.346323	-0.314973	-0.15993	0.177554	-0.971029	0
2.41576	-0.346069	-0.320011	-0.161133	0.157569	-0.974273	0
2.44475	-0.345023	-0.32267	-0.179122	0.111087	-0.977535	0
2.47415	-0.343475	-0.32533	-0.173641	0.058891	-0.983047	0
2.50581	-0.345153	-0.327171	-0.188329	0.029117	-0.981674	0
2.5347	-0.339208	-0.324437	-0.197586	-0.002181	-0.980283	0
2.56352	-0.34253	-0.325822	-0.200286	-0.015852	-0.979609	0
2.29565	-0.31944	-0.303555	-0.13119	0.20687	-0.969533	0
2.32447	-0.316868	-0.30477	-0.13304	0.201535	-0.970404	0
2.38418	-0.314997	-0.31306	-0.167598	0.14876	-0.974567	0
2.41421	-0.316118	-0.315541	-0.188048	0.097647	-0.977294	0
2.44625	-0.315893	-0.314345	-0.199222	0.048936	-0.978732	0
2.47548	-0.31775	-0.313158	-0.201479	0.016785	-0.979349	0
2.50258	-0.317424	-0.311426	-0.20654	-0.011536	-0.97837	0
2.53276	-0.315861	-0.315059	-0.217838	-0.016816	-0.97584	0
3.138	-0.31071	-0.321186	-0.236767	-0.00096	-0.971566	0
3.15949	-0.32206	-0.327442	-0.231121	-0.000583	-0.972925	0
2.35591	-0.296714	-0.300887	-0.159778	0.111071	-0.980884	0
2.38331	-0.296694	-0.302481	-0.191082	0.064855	-0.979429	0
2.41204	-0.298414	-0.304001	-0.205522	0.029411	-0.978211	0
2.53279	-0.283812	-0.314602	-0.219999	-0.051005	-0.974166	0
2.56008	-0.286762	-0.326021	-0.217239	-0.056722	-0.974469	0
3.05871	-0.275688	-0.303619	-0.224867	0.032206	-0.973857	0
3.08107	-0.281008	-0.309755	-0.236979	0.017005	-0.971366	0
3.10964	-0.284722	-0.31966	-0.249893	-0.009552	-0.968226	0
3.12762	-0.28419	-0.325624	-0.258803	-0.033522	-0.965348	0
2.50193	-0.255133	-0.314341	-0.218358	-0.079698	-0.972609	0
2.52672	-0.255369	-0.326974	-0.210482	-0.082594	-0.974102	0
3.01677	-0.248731	-0.304677	-0.220901	0.027467	-0.974909	0
3.04542	-0.25278	-0.313668	-0.240475	0.0027	-0.970652	0
3.07124	-0.259432	-0.319518	-0.257948	-0.016681	-0.966015	0
3.10923	-0.269181	-0.328391	-0.263162	-0.033899	-0.964156	0
2.98859	-0.223172	-0.306971	-0.22242	0.010641	-0.974893	0
3.01683	-0.227365	-0.313564	-0.249892	-0.005924	-0.968256	0
3.04063	-0.221774	-0.322956	-0.277894	-0.03262	-0.960058	0
3.06351	-0.225445	-0.32868	-0.288236	-0.054731	-0.955994	0
3.0136	-0.193984	-0.312929	-0.277811	-0.047942	-0.959439	0
3.03581	-0.192628	-0.318982	-0.290025	-0.064977	-0.954811	0
3.06466	-0.192386	-0.325902	-0.293429	-0.062938	-0.953907	0
2.98244	-0.1679	-0.303062	-0.272315	-0.054079	-0.960687	0
3.00861	-0.163817	-0.308484	-0.286751	-0.064021	-0.955863	0
3.03833	-0.16611	-0.315791	-0.287782	-0.062339	-0.955665	0
3.06704	-0.162232	-0.321277	-0.292613	-0.056935	-0.954534	0
2.41367	-0.131411	-0.327158	-0.240244	-0.117862	-0.963531	0
2.4301	-0.120897	-0.32894	-0.246231	-0.127193	-0.960829	0
2.98844	-0.134969	-0.302245	-0.270649	-0.078832	-0.959445	0
3.01984	-0.131129	-0.308604	-0.277156	-0.069188	-0.958331	0
3.04964	-0.142343	-0.317868	-0.28152	-0.062836	-0.957496	0
3.07303	-0.137147	-0.323142	-0.278902	-0.041053	-0.959442	0
3.09215	-0.136386	-0.327191	-0.276693	-0.028935	-0.960523	0
2.38531	-0.102965	-0.317666	-0.229867	-0.111829	-0.966776	0
2.4137	-0.102717	-0.32624	-0.244364	-0.11745	-0.962545	0
2.43214	-0.115237	-0.329061	-0.245892	-0.122352	-0.961544	0
2.99189	-0.098684	-0.30299	-0.248285	-0.092458	-0.964264	0
3.01467	-0.106335	-0.308966	-0.259489	-0.064145	-0.963613	0
3.04105	-0.108954	-0.315009	-0.26184	-0.052868	-0.963662	0
3.06817	-0.101217	-0.324493	-0.261171	-0.038201	-0.964536	0
2.39117	-0.080447	-0.322012	-0.241629	-0.11273	-0.963798	0
2.41171	-0.073556	-0.326719	-0.234565	-0.10464	-0.966452	0
2.43713	-0.067483	-0.32919	-0.196581	-0.079334	-0.977273	0
2.96365	-0.061591	-0.301981	-0.198713	-0.142929	-0.969579	0
2.9838	-0.074658	-0.303928	-0.224904	-0.113983	-0.967691	0
3.01469	-0.074231	-0.311347	-0.236465	-0.089885	-0.967473	0
3.04122	-0.073546	-0.318196	-0.244393	-0.075526	-0.96673	0
3.07046	-0.072247	-0.326251	-0.255522	-0.06523	-0.9646	0
2.39946	-0.034213	-0.319781	-0.207971	-0.075801	-0.975193	0
2.41392	-0.045911	-0.325542	-0.189716	-0.0647	-0.979705	0
2.43746	-0.044256	-0.329073	-0.174105	-0.036845	-0.984038	0
2.95834	-0.044043	-0.303667	-0.183653	-0.165256	-0.969	0
2.98402	-0.044103	-0.309126	-0.195463	-0.1617	-0.967289	0
3.01577	-0.044084	-0.315733	-0.21255	-0.15049	-0.965492	0
3.04829	-0.047609	-0.323905	-0.239263	-0.116663	-0.963921	0
3.06744	-0.047191	-0.327696	-0.247233	-0.112343	-0.962421	0
2.41631	-0.021123	-0.325692	-0.170895	-0.034324	-0.984691	0
2.432	-0.019855	-0.328534	-0.169486	-0.035124	-0.984906	0
2.95478	-0.016421	-0.305519	-0.179121	-0.193837	-0.964543	0
2.97931	-0.013293	-0.3111	-0.183678	-0.190466	-0.964357	0
3.0114	-0.016813	-0.318573	-0.188363	-0.187626	-0.96401	0
3.04261	-0.016086	-0.325087	-0.215134	-0.165296	-0.962494	0
2.95414	0.015664	-0.308132	-0.147787	-0.225968	-0.962859	0
2.98645	0.01278	-0.315613	-0.167991	-0.223153	-0.960199	0
3.01675	0.013927	-0.322191	-0.171561	-0.220292	-0.960228	0
3.04213	0.009193	-0.32669	-0.191849	-0.207196	-0.959304	0
2.92436	0.049351	-0.309392	0.077549	0.249016	0.965389	0
2.95673	0.043851	-0.314393	-0.131104	-0.246701	-0.960182	0
2.98657	0.042869	-0.320703	-0.150906	-0.247707	-0.95701	0
3.01322	0.043857	-0.326657	-0.158116	-0.242253	-0.957242	0
2.92754	0.065543	-0.32338	0.07558	0.249156	0.965509	0
2.96012	0.064367	-0.324347	-0.127685	-0.253032	-0.958995	0
2.98326	0.062184	-0.327085	-0.144597	-0.254669	-0.956157	0
2.52595	0.3285	-0.322989	-0.181072	0.146403	-0.972512	0
2.51875	0.343508	-0.314964	-0.190311	0.142567	-0.971317	0
2.53287	0.34685	-0.319813	-0.194289	0.142841	-0.970489	0
2.55799	0.350117	-0.326519	-0.197462	0.138404	-0.970491	0
2.53038	0.374955	-0.313084	-0.209886	0.135029	-0.968357	0
2.56183	0.374538	-0.322943	-0.211107	0.134093	-0.968222	0
2.58449	0.381517	-0.328789	-0.213463	0.125903	-0.968804	0
2.53895	0.404251	-0.311775	-0.224201	0.123179	-0.966727	0
2.56714	0.405354	-0.318874	-0.231492	0.120195	-0.965383	0
2.59062	0.408082	-0.325927	-0.234451	0.112311	-0.965618	0
2.53908	0.432756	-0.307158	-0.242419	0.120114	-0.962707	0
2.56312	0.434861	-0.312921	-0.247869	0.11602	-0.961821	0
2.59387	0.435941	-0.322303	-0.249521	0.10074	-0.963115	0
2.54508	0.455379	-0.308305	-0.250153	0.113004	-0.961589	0
2.56515	0.463954	-0.313016	-0.255362	0.104518	-0.96118	0
2.59429	0.467119	-0.321847	-0.255581	0.09793	-0.961815	0
2.61336	0.459398	-0.32759	-0.258677	0.085796	-0.962146	0
2.5724	0.487733	-0.318566	-0.256363	0.096576	-0.961744	0
2.59549	0.495552	-0.325615	-0.258583	0.088599	-0.961917	0
2.59948	0.521265	-0.32819	-0.251201	0.08839	-0.963891	0
2.61032	0.51602	-0.329995	-0.252366	0.082204	-0.964134	0
2.60673	0.553003	-0.328263	-0.238764	0.084806	-0.967368	0
2.6189	0.559346	-0.32769	-0.234242	0.088141	-0.968174	0
2.60962	0.573499	-0.325086	-0.234522	0.087088	-0.968202	0
2.62329	0.573078	-0.327985	-0.229464	0.090751	-0.969077	0
3.39258	0.595084	-0.329366	-0.061067	-0.349105	0.935092	0
3.35002	0.622823	-0.326263	-0.090463	-0.328422	0.940189	0
3.44001	0.6227	-0.327185	-0.035974	-0.342423	0.938857	0
3.46062	0.627397	-0.329169	-0.009553	-0.335809	0.941882	0
3.32182	0.64419	-0.325266	-0.103021	-0.305648	0.946555	0
3.34513	0.644379	-0.318704	-0.086143	-0.322852	0.942521	0
3.4349	0.644007	-0.318968	-0.027623	-0.329353	0.943803	0
3.46608	0.646791	-0.321475	-0.000451	-0.327205	0.944953	0
3.49351	0.647307	-0.323418	0.033492	-0.331379	0.942903	0
3.52729	0.648776	-0.327469	0.045257	-0.311502	0.949167	0
3.55387	0.654052	-0.325947	0.044098	-0.307749	0.950445	0
3.5906	0.653715	-0.328029	0.044001	-0.305801	0.951078	0
3.64363	0.659017	-0.326458	0.046901	-0.310566	0.949394	0
3.68276	0.659229	-0.328558	0.042514	-0.305365	0.951286	0
3.43408	0.663405	-0.30982	-0.027654	-0.329337	0.943808	0
3.46991	0.665632	-0.315047	-0.005627	-0.306328	0.951909	0
3.49733	0.668716	-0.318197	0.032595	-0.308874	0.950544	0
3.52438	0.67009	-0.320343	0.043203	-0.311423	0.949289	0
3.55219	0.669876	-0.322709	0.044622	-0.307466	0.950512	0
3.58759	0.674725	-0.325238	0.047194	-0.305891	0.950896	0
3.61648	0.680391	-0.323592	0.046038	-0.308339	0.950162	0
3.64497	0.678639	-0.323728	0.047131	-0.310394	0.949439	0
3.67721	0.679402	-0.32496	0.047735	-0.311639	0.949001	0
3.70605	0.678009	-0.322437	0.0392	-0.302961	0.952196	0
3.6582	0.691247	-0.316556	0.046907	-0.310567	0.949393	0
3.68078	0.692138	-0.311236	0.046809	-0.312691	0.948701	0
3.70653	0.693383	-0.30717	0.046577	-0.310348	0.949481	0
2.26706	-0.421343	-0.297838	-0.109213	0.197493	-0.974202	0
2.29687	-0.424051	-0.295081	-0.107047	0.192754	-0.975391	0
2.32353	-0.42745	-0.296558	-0.106747	0.186994	-0.976544	0
2.75046	-0.420667	-0.298585	-0.028253	-0.160757	0.98659	0
2.77365	-0.428337	-0.298335	0.004525	-0.207695	0.978183	0
2.80454	-0.422855	-0.297222	-0.081186	0.312708	-0.946373	0
2.24496	-0.401895	-0.292924	-0.116563	0.202684	-0.972282	0
2.26388	-0.404645	-0.286777	-0.118994	0.200809	-0.972377	0
2.29405	-0.40575	-0.280347	-0.121348	0.200825	-0.972082	0
2.3244	-0.401323	-0.280571	-0.123658	0.19814	-0.972342	0
2.38423	-0.403277	-0.294667	-0.135453	0.173958	-0.975393	0
2.40342	-0.394535	-0.298912	-0.150537	0.161792	-0.975275	0
2.80421	-0.404777	-0.295171	0.047244	-0.261633	0.96401	0
2.83622	-0.410936	-0.299949	-0.095967	0.312671	-0.945001	0
2.24661	-0.376416	-0.285008	-0.127918	0.207146	-0.969911	0
2.25383	-0.373438	-0.276108	-0.124934	0.207121	-0.970305	0
2.29928	-0.375744	-0.271063	-0.130254	0.205001	-0.970056	0
2.32659	-0.372648	-0.275707	-0.131821	0.199793	-0.97093	0
2.35493	-0.372364	-0.285564	-0.133392	0.200547	-0.97056	0
2.38318	-0.375475	-0.294604	-0.152162	0.187368	-0.970433	0
2.40803	-0.384131	-0.299195	-0.150147	0.171164	-0.973734	0
2.92453	-0.363663	-0.294127	-0.150463	0.220286	-0.963761	0
2.95673	-0.365021	-0.294331	-0.16807	0.204444	-0.964342	0
2.98865	-0.364359	-0.296237	-0.158969	0.194341	-0.967967	0
3.01935	-0.366407	-0.299287	-0.159597	0.185837	-0.969533	0
2.2661	-0.351372	-0.284633	-0.126138	0.210358	-0.969453	0
2.29295	-0.348261	-0.284894	-0.129312	0.209082	-0.969311	0
2.32251	-0.351453	-0.290162	-0.133633	0.205674	-0.969454	0
2.35171	-0.356579	-0.295047	-0.1338	0.194997	-0.971635	0
2.37057	-0.358365	-0.297632	-0.149625	0.191819	-0.969958	0
2.95171	-0.343378	-0.283497	-0.160857	0.171783	-0.971913	0
2.98663	-0.345135	-0.28974	-0.157417	0.155769	-0.97517	0
2.29527	-0.30433	-0.297931	-0.129389	0.207899	-0.969555	0
2.45182	-0.301681	-0.297899	-0.210963	0.012676	-0.977412	0
2.47622	-0.302767	-0.29584	-0.218461	0.012638	-0.975764	0
2.2762	-0.281374	-0.287089	-0.145935	0.130087	-0.980704	0
2.29329	-0.285559	-0.287794	-0.147606	0.113513	-0.982511	0
2.32378	-0.284667	-0.288105	-0.154564	0.080205	-0.984722	0
2.35423	-0.284388	-0.29023	-0.174125	0.059488	-0.982925	0
2.38267	-0.28105	-0.287915	-0.196386	-0.005847	-0.980509	0
2.41306	-0.28341	-0.285784	-0.209389	-0.017407	-0.977678	0
2.44598	-0.285517	-0.285527	-0.215876	-0.025798	-0.97608	0
2.47571	-0.285478	-0.290766	-0.217059	-0.039409	-0.975363	0
