# .PCD v0.7 - Point Cloud Data file format
VERSION 0.7
FIELDS x y z
SIZE 4 4 4
TYPE F F F
COUNT 1 1 1
WIDTH 838
HEIGHT 1
VIEWPOINT 0 0 0 1 0 0 0
POINTS 838
DATA ascii
4.76204	-1.91592	-0.111309	-0.250777	-0.319087	-0.913944	1
4.61019	-1.8642	-0.092101	-0.241876	-0.263481	-0.933849	1
4.6427	-1.8662	-0.095297	-0.224048	-0.265106	-0.937828	1
4.70473	-1.87485	-0.114121	-0.242647	-0.2766	-0.929847	1
4.61245	-1.85261	-0.0992	-0.2254	-0.255895	-0.94006	1
5.58	-2.47564	-0.063459	-0.264883	-0.480734	-0.835902	1
5.54027	-2.43863	-0.068973	-0.269792	-0.474978	-0.837621	1
5.58873	-2.44147	-0.077015	-0.264255	-0.478946	-0.837126	1
5.49612	-2.4122	-0.076438	-0.261262	-0.459972	-0.848627	1
5.54744	-2.40888	-0.082323	-0.270111	-0.466507	-0.842266	1
5.55041	-2.40064	-0.082499	-0.27029	-0.466587	-0.842164	1
5.40842	-2.38372	-0.069065	-0.261851	-0.455333	-0.850944	1
5.5024	-2.39339	-0.078641	-0.264545	-0.460667	-0.847232	1
5.55487	-2.38827	-0.082764	-0.273106	-0.462647	-0.843428	1
5.32751	-2.3467	-0.060394	-0.261426	-0.446304	-0.855844	1
5.36917	-2.35655	-0.067833	-0.256752	-0.447854	-0.856449	1
5.41698	-2.35517	-0.07587	-0.263068	-0.4519	-0.852398	1
5.46494	-2.35337	-0.083915	-0.260666	-0.453657	-0.852203	1
5.29133	-2.3123	-0.065556	-0.268504	-0.447812	-0.85286	1
5.33296	-2.32215	-0.073098	-0.259889	-0.445834	-0.856557	1
5.37753	-2.32384	-0.080814	-0.258931	-0.443824	-0.85789	1
5.42501	-2.32647	-0.084742	-0.262749	-0.446549	-0.855311	1
5.24822	-2.30636	-0.062103	-0.275504	-0.449823	-0.849563	1
5.25281	-2.29055	-0.066434	-0.267175	-0.447393	-0.853497	1
5.29814	-2.28404	-0.078238	-0.262662	-0.444394	-0.856459	1
5.34267	-2.28575	-0.086055	-0.258227	-0.441564	-0.859267	1
5.17223	-2.26313	-0.063707	-0.271762	-0.46055	-0.845009	1
5.21533	-2.26908	-0.063215	-0.271362	-0.455714	-0.847755	1
5.25739	-2.27473	-0.070765	-0.266985	-0.447777	-0.853355	1
5.30237	-2.27229	-0.078489	-0.262649	-0.448112	-0.854524	1
5.34552	-2.27785	-0.086224	-0.258463	-0.441661	-0.859146	1
5.14104	-2.22713	-0.0649	-0.280448	-0.467103	-0.838548	1
5.18224	-2.23229	-0.068294	-0.272227	-0.464727	-0.842568	1
5.22619	-2.22973	-0.075935	-0.258635	-0.456274	-0.851424	1
5.26695	-2.23894	-0.083509	-0.259459	-0.451016	-0.85397	1
5.3088	-2.24823	-0.087056	-0.254372	-0.446691	-0.857766	1
5.18792	-2.21146	-0.075285	-0.270231	-0.466554	-0.842201	1
5.19144	-2.19563	-0.083479	-0.264898	-0.468054	-0.843063	1
5.2315	-2.20579	-0.088326	-0.253663	-0.453297	-0.854504	1
5.06949	-2.18673	-0.066608	-0.28486	-0.481049	-0.829124	1
5.07352	-2.17554	-0.066847	-0.283622	-0.482978	-0.828427	1
5.11375	-2.18034	-0.070249	-0.283381	-0.473389	-0.834025	1
5.15347	-2.18057	-0.081479	-0.27143	-0.470194	-0.839788	1
5.19791	-2.17361	-0.089186	-0.25638	-0.455249	-0.852653	1
5.08501	-2.13771	-0.075325	-0.278278	-0.487679	-0.827484	1
5.00964	-2.12587	-0.061097	-0.290388	-0.497378	-0.81749	1
5.01214	-2.11311	-0.068919	-0.289609	-0.497828	-0.817493	1
5.04797	-2.12003	-0.0774	-0.28336	-0.49153	-0.823472	1
4.94294	-2.08427	-0.062751	-0.300485	-0.499916	-0.812276	1
4.9797	-2.08397	-0.077414	-0.293234	-0.498856	-0.815571	1
4.98232	-2.07668	-0.07757	-0.293142	-0.498881	-0.815589	1
4.91444	-2.04737	-0.071318	-0.302081	-0.504053	-0.809121	1
4.98436	-2.06523	-0.085305	-0.292701	-0.498573	-0.815936	1
4.84914	-2.01411	-0.072779	-0.309093	-0.515864	-0.798966	1
4.91648	-2.03216	-0.083934	-0.287714	-0.449302	-0.845783	1
4.78669	-1.98462	-0.066967	-0.308913	-0.486685	-0.817136	1
4.85293	-1.99702	-0.08162	-0.296291	-0.459296	-0.837412	1
4.72687	-1.95094	-0.061234	-0.289186	-0.431122	-0.854696	1
4.79017	-1.96389	-0.081725	-0.282834	-0.440615	-0.851976	1
4.69628	-1.9268	-0.076253	-0.295933	-0.346169	-0.890275	1
4.72789	-1.93991	-0.072048	-0.285228	-0.387204	-0.876765	1
4.75874	-1.9416	-0.089449	-0.278687	-0.391139	-0.877122	1
4.63828	-1.8945	-0.07399	-0.284221	-0.319907	-0.903813	1
4.7	-1.91285	-0.081219	-0.265716	-0.307483	-0.913701	1
4.60975	-1.87287	-0.082323	-0.275138	-0.281334	-0.919321	1
4.6412	-1.88239	-0.079425	-0.251779	-0.295163	-0.921676	1
4.61433	-1.85801	-0.085381	-0.234781	-0.258327	-0.937094	1
5.74743	-2.6409	-0.031717	0.070856	0.275036	0.958819	1
5.70081	-2.61392	-0.032968	0.090213	0.31607	0.944437	1
5.75215	-2.62324	-0.038004	0.072642	0.295125	0.952693	1
5.654	-2.58717	-0.038568	0.14476	0.369254	0.917985	1
5.70389	-2.60538	-0.033151	0.108222	0.340974	0.933823	1
5.6601	-2.57024	-0.03893	0.153022	0.380412	0.912069	1
5.61718	-2.53578	-0.044623	-0.190729	-0.404831	-0.894279	1
5.52742	-2.49401	-0.042361	-0.251974	-0.468619	-0.846703	1
5.57577	-2.49733	-0.050171	-0.261814	-0.474923	-0.84018	1
5.43968	-2.4622	-0.031612	-0.232823	-0.436569	-0.869023	1
5.53039	-2.48576	-0.042538	-0.253126	-0.466397	-0.847585	1
5.57918	-2.48456	-0.054719	-0.259113	-0.472617	-0.842315	1
5.58135	-2.48515	-0.046157	-0.259206	-0.472694	-0.842243	1
5.44356	-2.44367	-0.042003	-0.242388	-0.449094	-0.859978	1
5.48818	-2.45237	-0.052174	-0.256501	-0.457957	-0.851166	1
5.4926	-2.44011	-0.052437	-0.263597	-0.459691	-0.848057	1
5.35883	-2.41062	-0.033929	-0.241146	-0.437364	-0.866349	1
5.4059	-2.4051	-0.050027	-0.258453	-0.452438	-0.853523	1
5.44939	-2.41588	-0.05759	-0.254807	-0.455675	-0.852897	1
5.49595	-2.42755	-0.056905	-0.264587	-0.46479	-0.844964	1
5.32374	-2.37605	-0.035408	-0.248004	-0.438432	-0.86387	1
5.4096	-2.38846	-0.058642	-0.261971	-0.455346	-0.8509	1
5.28477	-2.34924	-0.040612	-0.265616	-0.443131	-0.856203	1
5.32642	-2.36232	-0.043821	-0.257236	-0.444728	-0.857932	1
5.20533	-2.32138	-0.03042	-0.267367	-0.434503	-0.860071	1
5.24948	-2.31525	-0.045944	-0.277259	-0.445806	-0.851108	1
5.20944	-2.29922	-0.044753	-0.26993	-0.445076	-0.853841	1
5.25165	-2.30304	-0.054189	-0.275506	-0.449822	-0.849563	1
5.13573	-2.259	-0.042143	-0.280882	-0.455797	-0.844603	1
5.1756	-2.25986	-0.055923	-0.276275	-0.46106	-0.843265	1
5.06286	-2.22591	-0.038931	-0.28113	-0.456762	-0.843999	1
5.10179	-2.22251	-0.057752	-0.281932	-0.469077	-0.836948	1
5.14166	-2.23147	-0.057016	-0.280682	-0.46534	-0.83945	1
5.06547	-2.2157	-0.042983	-0.287382	-0.468219	-0.835573	1
5.1045	-2.21499	-0.057913	-0.283145	-0.472753	-0.834466	1
4.9961	-2.17663	-0.043027	-0.290353	-0.478698	-0.828579	1
5.03265	-2.17844	-0.055612	-0.285831	-0.485197	-0.826368	1
5.07412	-2.17981	-0.059088	-0.283903	-0.482067	-0.828861	1
4.92893	-2.14161	-0.037743	-0.288086	-0.470334	-0.834142	1
4.86455	-2.10689	-0.033876	-0.296719	-0.463222	-0.835095	1
4.935	-2.11785	-0.04717	-0.300165	-0.492067	-0.817172	1
4.97359	-2.11833	-0.054209	-0.294518	-0.497135	-0.816159	1
4.83537	-2.07765	-0.038729	-0.307811	-0.490172	-0.815465	1
4.86946	-2.08476	-0.045329	-0.303895	-0.491199	-0.816316	1
4.90619	-2.08453	-0.052085	-0.296297	-0.504216	-0.811156	1
4.94483	-2.08479	-0.055308	-0.300491	-0.499888	-0.812291	1
4.70931	-2.02151	-0.031517	-0.273718	-0.470558	-0.83884	1
4.71179	-2.01465	-0.031664	-0.276649	-0.469687	-0.838367	1
4.74454	-2.02505	-0.030834	-0.296102	-0.473179	-0.829714	1
4.77891	-2.02841	-0.037401	-0.308176	-0.487137	-0.817144	1
4.81376	-2.02754	-0.043864	-0.308507	-0.506001	-0.805473	1
4.84982	-2.02725	-0.053126	-0.309564	-0.514074	-0.799936	1
4.68732	-1.98423	-0.033017	-0.26894	-0.465174	-0.843377	1
4.72415	-1.98035	-0.032399	-0.29131	-0.480002	-0.827488	1
4.78768	-1.99408	-0.051019	-0.314408	-0.509975	-0.800671	1
4.691	-1.97402	-0.033236	-0.271606	-0.462999	-0.843719	1
4.7246	-1.97545	-0.037204	-0.295097	-0.478517	-0.827006	1
4.63704	-1.92737	-0.035336	-0.30095	-0.376005	-0.876384	1
4.69815	-1.94604	-0.044337	-0.289934	-0.422717	-0.858632	1
4.64112	-1.90266	-0.053115	-0.284217	-0.331656	-0.899569	1
4.61169	-1.88659	-0.057365	-0.298049	-0.316804	-0.900446	1
5.75114	-2.64571	-0.012115	0.069803	0.269882	0.96036	1
5.69996	-2.62308	-0.023989	0.086711	0.306623	0.947873	1
5.7022	-2.6237	-0.015193	0.086793	0.306679	0.947847	1
5.75504	-2.63352	-0.014149	0.070805	0.275015	0.958829	1
5.6089	-2.58886	-0.004667	0.140031	0.351148	0.925789	1
5.61192	-2.58046	-0.004847	0.149114	0.360438	0.920787	1
5.65426	-2.59656	-0.025311	0.136528	0.359107	0.923256	1
5.51631	-2.55439	-0.002929	-0.191502	-0.398511	-0.896948	1
5.56456	-2.55825	-0.010394	-0.187574	-0.377784	-0.906694	1
5.51861	-2.54143	-0.011682	-0.201521	-0.409741	-0.889664	1
5.52136	-2.53162	-0.014718	-0.208597	-0.422129	-0.88221	1
5.5658	-2.54487	-0.023505	-0.203836	-0.407929	-0.889969	1
5.48093	-2.49529	-0.021851	-0.228026	-0.442918	-0.86708	1
5.52619	-2.50727	-0.029365	-0.240365	-0.46435	-0.85241	1
5.39613	-2.46423	-0.007473	-0.221795	-0.42534	-0.877435	1
5.44179	-2.46278	-0.023271	-0.232797	-0.436579	-0.869025	1
5.39886	-2.45026	-0.01603	-0.231115	-0.435119	-0.870205	1
5.44471	-2.45468	-0.023445	-0.232808	-0.436641	-0.868991	1
5.31815	-2.41358	-0.006188	-0.225415	-0.402985	-0.887012	1
5.36091	-2.41119	-0.02573	-0.241045	-0.437404	-0.866358	1
5.28102	-2.37835	-0.015835	-0.248836	-0.419403	-0.87303	1
5.20304	-2.34615	-0.006134	-0.256972	-0.396744	-0.881226	1
5.28219	-2.36575	-0.028181	-0.256894	-0.430108	-0.865455	1
5.20663	-2.32597	-0.019764	-0.266843	-0.425864	-0.864543	1
5.13198	-2.28852	-0.01684	-0.271753	-0.42577	-0.863059	1
5.06162	-2.25017	-0.011573	-0.262572	-0.425341	-0.866107	1
5.13455	-2.27534	-0.024913	-0.278875	-0.447427	-0.849728	1
5.06273	-2.23818	-0.023332	-0.269878	-0.441765	-0.855576	1
4.95764	-2.19938	-0.005038	-0.256326	-0.411971	-0.874401	1
4.92503	-2.16279	-0.023913	-0.272015	-0.433857	-0.858939	1
4.96115	-2.17898	-0.019206	-0.263315	-0.443372	-0.856788	1
4.89417	-2.1522	-0.006388	-0.285203	-0.421289	-0.860915	1
4.92764	-2.15556	-0.024067	-0.279776	-0.451279	-0.847392	1
4.84547	-2.12024	-0.015699	-0.28758	-0.427622	-0.856993	1
4.86295	-2.1208	-0.021378	-0.293593	-0.441685	-0.847772	1
4.73433	-2.07542	-0.001341	-0.258813	-0.413973	-0.872721	1
4.76862	-2.07915	-0.007687	-0.274414	-0.42558	-0.86231	1
4.78411	-2.08416	-0.010723	-0.284737	-0.425632	-0.858931	1
4.8003	-2.08165	-0.021078	-0.297415	-0.454675	-0.839532	1
4.67391	-2.04044	-0.007311	-0.241185	-0.443467	-0.863231	1
4.70638	-2.04333	-0.013422	-0.25542	-0.445034	-0.858315	1
4.73755	-2.05656	-0.014532	-0.275738	-0.44527	-0.851882	1
4.74068	-2.04678	-0.016162	-0.273624	-0.451668	-0.849191	1
4.77286	-2.05353	-0.026128	-0.301001	-0.475086	-0.826856	1
4.67749	-2.02345	-0.016776	-0.250726	-0.450206	-0.857001	1
4.68106	-2.01246	-0.018411	-0.260761	-0.455168	-0.851367	1
4.71234	-2.01858	-0.024529	-0.273717	-0.470558	-0.838841	1
4.64773	-2.00933	-0.015705	-0.240994	-0.445851	-0.862055	1
4.68787	-1.98813	-0.025933	-0.268937	-0.465175	-0.843377	1
4.65726	-1.97479	-0.02687	-0.264657	-0.45695	-0.849207	1
4.69278	-1.97451	-0.026225	-0.271259	-0.4631	-0.843775	1
4.63879	-1.92785	-0.028426	-0.296297	-0.381482	-0.875602	1
5.75162	-2.67049	0.022096	0.068474	0.266157	0.961494	1
5.6477	-2.65526	0.028169	0.105001	0.297597	0.9489	1
5.6975	-2.66624	0.023776	0.074902	0.282502	0.956338	1
5.70244	-2.65195	0.022739	0.079506	0.283478	0.955677	1
5.75248	-2.66125	0.013035	0.071189	0.265005	0.961616	1
5.6064	-2.61585	0.021791	0.131156	0.335714	0.932788	1
5.65432	-2.6245	0.011554	0.107324	0.320865	0.941025	1
5.70581	-2.63409	0.011378	0.077061	0.287333	0.954726	1
5.56004	-2.5951	0.021743	0.155169	0.344467	0.925886	1
5.65895	-2.60716	0.00538	0.121373	0.337128	0.933602	1
5.47312	-2.55604	0.029857	-0.174051	-0.36704	-0.913777	1
5.51913	-2.55971	0.014135	-0.182135	-0.3798	-0.906961	1
5.52062	-2.55558	0.014046	-0.186152	-0.389971	-0.901815	1
5.56658	-2.57252	0.01556	-0.169913	-0.35382	-0.919751	1
5.47589	-2.54183	0.021151	-0.184422	-0.383164	-0.905082	1
5.52251	-2.54704	0.009626	-0.201128	-0.406391	-0.891288	1
5.39045	-2.50241	0.022246	-0.1988	-0.397588	-0.895769	1
5.43274	-2.51373	0.011134	-0.19991	-0.406027	-0.891727	1
5.39494	-2.47715	0.00519	-0.212387	-0.411449	-0.886342	1
5.31438	-2.44294	0.018797	-0.215211	-0.383781	-0.897996	1
5.27629	-2.41436	0.014457	-0.231229	-0.376669	-0.897025	1
5.23671	-2.39713	0.015697	-0.238946	-0.363736	-0.900334	1
5.20328	-2.35469	0.005927	-0.258433	-0.384937	-0.886023	1
5.09359	-2.31118	0.029171	-0.236378	-0.376704	-0.895667	1
5.05964	-2.28243	0.023623	-0.241163	-0.396088	-0.885977	1
5.09583	-2.287	0.005464	-0.252083	-0.407902	-0.877536	1
5.06232	-2.27497	0.023464	-0.243093	-0.398896	-0.884188	1
5.09854	-2.27948	0.005304	-0.25212	-0.407894	-0.877529	1
4.99237	-2.23817	0.024337	-0.251437	-0.388423	-0.886514	1
5.02678	-2.24191	0.006599	-0.238225	-0.412758	-0.879136	1
4.95767	-2.20606	0.003843	-0.249516	-0.39974	-0.882014	1
4.82955	-2.13043	0.009619	-0.272817	-0.400963	-0.874528	1
4.8277	-2.12992	0.002343	-0.272692	-0.400983	-0.874558	1
4.83117	-2.1231	0.00583	-0.277548	-0.408165	-0.869694	1
4.70455	-2.07299	0.018945	-0.238983	-0.39906	-0.885233	1
4.73601	-2.08728	0.020223	-0.250283	-0.396411	-0.883299	1
4.7685	-2.0906	0.006873	-0.270804	-0.407354	-0.872197	1
4.67658	-2.04117	0.003207	-0.237361	-0.436049	-0.868056	1
4.70702	-2.06613	0.018798	-0.24519	-0.406096	-0.880323	1
4.73863	-2.06901	0.005625	-0.261033	-0.417543	-0.870356	1
4.64571	-2.03533	0.011165	-0.219817	-0.441032	-0.870156	1
4.66458	-2.03333	0.013038	-0.229553	-0.439932	-0.868196	1
5.73989	-2.70991	0.031803	0.075019	0.261271	0.962346	1
5.69095	-2.69575	0.039046	0.091254	0.282846	0.954814	1
5.74455	-2.69698	0.031526	0.072019	0.262625	0.962207	1
5.64991	-2.65587	0.036886	0.105181	0.297618	0.948873	1
5.56044	-2.60283	0.033307	-0.159045	-0.337729	-0.927709	1
5.43033	-2.53979	0.036678	-0.197146	-0.362441	-0.910917	1
5.39359	-2.50328	0.034652	-0.193698	-0.40385	-0.894084	1
4.70648	-2.08861	0.04631	-0.234104	-0.384844	-0.892799	1
3.22645	-2.07023	-0.033725	-0.163904	-0.09498	-0.981893	1
3.22687	-2.05961	-0.033545	-0.164119	-0.094839	-0.981871	1
3.13727	-2.19475	-0.000486	-0.155362	-0.080074	-0.984607	1
3.06828	-2.10926	-0.000905	-0.13422	-0.071446	-0.988373	1
3.06502	-2.07494	-0.002382	-0.131124	-0.065748	-0.989183	1
3.13875	-2.07191	-0.004547	-0.154629	-0.073584	-0.985229	1
3.11797	-2.06385	-0.000819	-0.154158	-0.06222	-0.986085	1
3.13825	-2.05404	-0.006132	-0.165253	-0.067791	-0.983918	1
3.16848	-2.05934	-0.017461	-0.179652	-0.072282	-0.981071	1
3.19314	-2.06316	-0.02349	-0.169086	-0.086586	-0.981791	1
3.21241	-2.06571	-0.026858	-0.169652	-0.086051	-0.98174	1
3.08253	-2.25947	0.010653	0.032377	0.415859	0.908853	1
3.05005	-2.24082	0.011812	-0.13439	-0.074346	-0.988136	1
3.08414	-2.23464	0.013391	0.064699	0.222494	0.972785	1
3.02235	-2.20431	0.014527	-0.122316	-0.065229	-0.990345	1
3.05353	-2.20561	0.013561	-0.135575	-0.070772	-0.988236	1
3.08541	-2.20979	0.014921	-0.13599	-0.079509	-0.987515	1
3.10871	-2.20596	0.008956	-0.150479	-0.080573	-0.985324	1
3.13486	-2.1964	0.010931	-0.155443	-0.080942	-0.984523	1
3.15332	-2.21365	0.01869	0.031964	0.336052	0.941301	1
2.98966	-2.17904	0.015442	-0.107138	-0.055654	-0.992685	1
3.00811	-2.17534	0.015649	-0.11574	-0.061165	-0.991394	1
3.0596	-2.18693	0.010781	-0.134602	-0.071087	-0.988347	1
3.06764	-2.17505	0.013232	-0.137895	-0.073628	-0.987706	1
3.11148	-2.17448	0.002797	-0.146493	-0.080765	-0.985909	1
3.13403	-2.17152	0.016561	-0.155591	-0.081101	-0.984487	1
2.96274	-2.15574	0.017292	-0.085341	-0.041631	-0.995482	1
2.98821	-2.14841	0.016065	-0.093262	-0.045509	-0.994601	1
3.01183	-2.1411	0.019304	-0.107638	-0.057848	-0.992506	1
3.04553	-2.1398	0.014856	-0.127444	-0.069615	-0.9894	1
3.07228	-2.13847	0.008724	-0.134234	-0.071405	-0.988374	1
3.10695	-2.14223	0.003396	-0.143026	-0.079326	-0.986535	1
3.13347	-2.1433	0.015013	-0.154097	-0.079896	-0.98482	1
2.9314	-2.12126	0.021473	-0.071649	-0.016363	-0.997296	1
2.94826	-2.11217	0.01867	-0.069433	-0.017728	-0.997429	1
2.98782	-2.1125	0.020273	-0.085042	-0.033998	-0.995797	1
3.01815	-2.10839	0.015584	-0.110536	-0.058091	-0.992173	1
3.05021	-2.1127	0.008901	-0.128829	-0.069384	-0.989237	1
3.07496	-2.11362	0.005087	-0.136274	-0.07221	-0.988036	1
3.10176	-2.11835	0.004195	-0.140515	-0.078804	-0.986937	1
2.90004	-2.0898	0.025621	-0.081476	0.01056	-0.996619	1
2.92252	-2.08465	0.019633	-0.074014	0.002318	-0.997254	1
2.95814	-2.08565	0.019241	-0.086652	-0.013941	-0.996141	1
2.98058	-2.08422	0.020457	-0.081368	-0.017733	-0.996526	1
3.01189	-2.08505	0.013807	-0.092784	-0.042123	-0.994795	1
3.04174	-2.0823	0.006055	-0.114976	-0.052825	-0.991963	1
3.07649	-2.08031	0.005585	-0.13778	-0.063729	-0.98841	1
3.13426	-2.08472	0.006055	-0.151787	-0.073928	-0.985645	1
2.87102	-2.05484	0.029591	-0.086871	0.011497	-0.996153	1
2.89678	-2.05689	0.022016	-0.087638	0.009052	-0.996111	1
2.92874	-2.05591	0.017297	-0.085769	0.009576	-0.996269	1
2.95756	-2.06073	0.016322	-0.083653	-0.006966	-0.996471	1
2.98358	-2.05472	0.014554	-0.090131	-0.010034	-0.995879	1
3.01876	-2.05224	0.004841	-0.0976	-0.027786	-0.994838	1
3.04745	-2.04333	0.007544	-0.110924	-0.035705	-0.993187	1
3.08111	-2.06253	0.008268	-0.132539	-0.057444	-0.989512	1
3.10141	-2.0589	0.007304	-0.146916	-0.056037	-0.98756	1
2.86504	-2.01908	0.026499	-0.092408	0.013048	-0.995636	1
2.89267	-2.0172	0.019287	-0.094603	0.011911	-0.995444	1
2.93132	-2.0235	0.01645	-0.09052	0.012521	-0.995816	1
2.95174	-2.02724	0.017719	-0.096016	0.011524	-0.995313	1
2.98326	-2.02683	0.011342	-0.098722	0.00767	-0.995086	1
3.01767	-2.02621	0.007235	-0.107502	-0.015488	-0.994084	1
3.04471	-2.03109	0.009273	-0.111864	-0.038018	-0.992996	1
3.07171	-2.02967	0.009459	-0.132494	-0.049813	-0.989931	1
3.09853	-2.02898	0.002112	-0.147993	-0.059929	-0.987171	1
2.84233	-1.98298	0.029705	-0.099836	0.003744	-0.994997	1
2.86739	-1.98912	0.021857	-0.098804	0.00792	-0.995075	1
2.8969	-1.99669	0.016694	-0.095357	0.012396	-0.995366	1
2.92253	-1.99117	0.012932	-0.095353	0.012416	-0.995366	1
2.95165	-2.00133	0.013242	-0.098195	0.011472	-0.995101	1
2.9882	-1.98945	0.015329	-0.107158	0.01114	-0.99418	1
3.0236	-1.99045	0.018355	-0.121387	-0.005763	-0.992589	1
2.83752	-1.96	0.025708	-0.111964	-0.013443	-0.993621	1
2.86254	-1.96251	0.018446	-0.111973	-0.013435	-0.99362	1
2.88813	-1.96224	0.01211	-0.108927	-0.005025	-0.994037	1
2.9199	-1.96428	0.011799	-0.107956	-0.000135	-0.994156	1
2.94504	-1.96251	0.019765	-0.110282	0.000222	-0.9939	1
3.01801	-1.96628	0.021819	-0.129101	-0.004339	-0.991622	1
2.81222	-1.92897	0.023942	-0.121496	-0.025547	-0.992263	1
2.83657	-1.93006	0.017516	-0.121343	-0.025713	-0.992278	1
2.86579	-1.93198	0.013021	-0.121936	-0.025685	-0.992206	1
2.89671	-1.94019	0.012169	-0.122004	-0.026073	-0.992187	1
2.92278	-1.93572	0.024508	-0.122498	-0.025264	-0.992147	1
2.96627	-1.94805	0.025549	-0.119211	-0.008246	-0.992835	1
3.01317	-1.94	0.025237	-0.140039	-0.031509	-0.989645	1
2.83659	-1.90569	0.011583	-0.133243	-0.042239	-0.990183	1
2.85721	-1.90693	0.013987	-0.133242	-0.042219	-0.990184	1
2.89091	-1.91539	0.020383	-0.129997	-0.039401	-0.990731	1
2.86049	-1.88307	0.024401	-0.143424	-0.049429	-0.988426	1
3.14848	-2.19315	0.037533	0.031965	0.336052	0.941301	1
3.1646	-2.20589	0.038377	-0.019326	0.442198	0.896709	1
3.13871	-2.17071	0.032264	-0.155352	-0.080087	-0.984607	1
3.15812	-2.18389	0.034681	0.064604	0.265617	0.961912	1
3.14382	-2.15654	0.031961	-0.157181	-0.078111	-0.984476	1
2.83411	-2.01084	0.036801	-0.092219	0.013013	-0.995654	1
2.85501	-2.02235	0.032144	-0.092397	0.013047	-0.995637	1
2.82323	-2.00427	0.040501	-0.094489	0.010879	-0.995466	1
2.81055	-1.96624	0.036443	-0.111161	-0.013064	-0.993717	1
2.82263	-1.96592	0.035353	-0.107731	-0.004943	-0.994168	1
2.79993	-1.93335	0.034338	-0.121455	-0.025561	-0.992268	1
2.93392	-1.92394	0.031844	-0.135135	-0.045709	-0.989772	1
2.96256	-1.93729	0.032298	-0.124275	-0.019735	-0.992052	1
2.89471	-1.89777	0.034522	-0.135484	-0.045078	-0.989753	1
2.93428	-1.89298	0.043774	-0.13887	-0.047867	-0.989153	1
2.86725	-1.86496	0.041651	-0.147637	-0.054792	-0.987523	1
2.90738	-1.88721	0.042363	-0.14254	-0.05106	-0.988471	1
2.91803	-1.86444	0.050618	-0.148431	-0.057828	-0.98723	1
2.8828	-1.85235	0.054499	-0.148643	-0.056171	-0.987294	1
4.24869	-1.02489	-0.422864	0.185368	0.519483	0.834132	1
4.1278	-0.995094	-0.424353	0.155336	0.549341	0.821033	1
4.15795	-0.993357	-0.422504	0.157056	0.522734	0.837903	1
4.03123	-0.965098	-0.423138	0.154105	0.525253	0.836876	1
4.34057	-1.09016	-0.395963	0.155576	0.632799	0.758526	1
4.36716	-1.08667	-0.403876	0.14825	0.605703	0.781758	1
4.22944	-1.0524	-0.39527	0.199409	0.581293	0.788882	1
4.25319	-1.05805	-0.393485	0.207507	0.579502	0.78811	1
4.12308	-1.00375	-0.403879	0.164515	0.564181	0.809095	1
4.15346	-1.00231	-0.40824	0.165743	0.552198	0.817072	1
4.19016	-1.00194	-0.416807	0.169191	0.527832	0.832327	1
4.20971	-1.01901	-0.415106	0.182461	0.539629	0.821893	1
3.92155	-0.964457	-0.394881	0.176434	0.574673	0.799138	1
3.94583	-0.967556	-0.398478	0.170851	0.573169	0.801428	1
3.97863	-0.97387	-0.400619	0.166682	0.572901	0.802497	1
4.00909	-0.977328	-0.403591	0.164209	0.571972	0.803669	1
4.03067	-0.977102	-0.409384	0.163063	0.559078	0.812922	1
4.05847	-0.981404	-0.411789	0.156632	0.558851	0.814341	1
4.09586	-0.989295	-0.416225	0.152895	0.565205	0.810658	1
3.80866	-0.939339	-0.390474	0.193554	0.571993	0.797095	1
3.82413	-0.938074	-0.392937	0.199465	0.564242	0.801152	1
3.85569	-0.939406	-0.396781	0.189091	0.533934	0.824111	1
3.88555	-0.93966	-0.398612	0.177499	0.53166	0.828149	1
3.91359	-0.944611	-0.406024	0.177019	0.515014	0.838704	1
3.94931	-0.948226	-0.411384	0.160023	0.513714	0.842906	1
3.96899	-0.955297	-0.414422	0.178669	0.51238	0.839967	1
3.99082	-0.955845	-0.414393	0.168082	0.519468	0.837795	1
4.03467	-0.959969	-0.417565	0.153946	0.52528	0.836888	1
4.29654	-1.11091	-0.362125	0.150909	0.668649	0.728104	1
4.34586	-1.11012	-0.383697	0.15502	0.646606	0.746907	1
4.25006	-1.08625	-0.367725	0.200643	0.623627	0.755534	1
4.27432	-1.09391	-0.36544	0.17961	0.641995	0.745374	1
4.29841	-1.09507	-0.376223	0.166419	0.640868	0.749395	1
4.32645	-1.10158	-0.3799	0.154704	0.657323	0.737559	1
4.16033	-1.0546	-0.363887	0.193175	0.638763	0.744758	1
4.18337	-1.0587	-0.366692	0.198167	0.630984	0.750059	1
4.22817	-1.06617	-0.381772	0.203598	0.602538	0.771684	1
4.2477	-1.06833	-0.381537	0.205492	0.592546	0.778885	1
4.07182	-1.02356	-0.37066	0.171012	0.637397	0.751319	1
4.09444	-1.02912	-0.36909	0.183271	0.635866	0.749724	1
4.12529	-1.03662	-0.370214	0.194441	0.638411	0.744731	1
4.1583	-1.03579	-0.380712	0.186638	0.609189	0.77075	1
4.18598	-1.03882	-0.383417	0.186293	0.605884	0.773434	1
3.92478	-0.990593	-0.364806	0.180211	0.638729	0.748031	1
3.82574	-0.963452	-0.37263	0.201796	0.618465	0.75946	1
3.85293	-0.967552	-0.369755	0.207247	0.615802	0.760156	1
3.88503	-0.975086	-0.373701	0.193783	0.615876	0.763639	1
3.91365	-0.97822	-0.377865	0.187274	0.616803	0.764515	1
3.94558	-0.984408	-0.377297	0.1833	0.622789	0.760615	1
3.9733	-0.987571	-0.382955	0.173143	0.609007	0.774036	1
3.66952	-0.932103	-0.367936	0.144986	0.527387	0.837163	1
3.70562	-0.935891	-0.369729	0.172346	0.566251	0.806013	1
3.73459	-0.937335	-0.370558	0.184181	0.568331	0.801921	1
3.7643	-0.943041	-0.373281	0.186303	0.599738	0.778207	1
3.79612	-0.948445	-0.375778	0.198893	0.592908	0.780322	1
3.8281	-0.951476	-0.379864	0.199543	0.588637	0.783383	1
3.85411	-0.953097	-0.384474	0.198043	0.576533	0.79271	1
3.87153	-0.940006	-0.389228	0.185317	0.545333	0.817478	1
3.55407	-0.904986	-0.363904	0.070213	0.404628	0.911782	1
3.58735	-0.910035	-0.366659	0.083526	0.415987	0.905527	1
3.61538	-0.91394	-0.366513	0.098035	0.442897	0.891197	1
3.64044	-0.914648	-0.372082	0.11795	0.480362	0.869103	1
3.67311	-0.915579	-0.378721	0.152741	0.488691	0.858983	1
3.70719	-0.917685	-0.382078	0.172152	0.494195	0.852135	1
3.73287	-0.920807	-0.384207	0.184903	0.521797	0.83279	1
3.76657	-0.924992	-0.383743	0.198393	0.533038	0.822502	1
4.19881	-1.11168	-0.332615	0.209992	0.651376	0.729118	1
4.22289	-1.11478	-0.336921	0.198507	0.659709	0.72483	1
4.24704	-1.11609	-0.339413	0.179096	0.666066	0.724072	1
4.1079	-1.08503	-0.334328	0.19774	0.656275	0.72815	1
4.15439	-1.09391	-0.333591	0.201885	0.657683	0.725738	1
4.17892	-1.09287	-0.337806	0.204874	0.652656	0.729429	1
4.21878	-1.09669	-0.34384	0.205593	0.647783	0.733559	1
4.25014	-1.09789	-0.35218	0.188387	0.643424	0.741968	1
4.273	-1.10816	-0.351465	0.162212	0.660971	0.73267	1
4.30024	-1.10539	-0.356128	0.150973	0.668624	0.728114	1
4.03782	-1.05879	-0.331849	0.179692	0.663122	0.726623	1
4.06843	-1.05748	-0.338305	0.181139	0.659164	0.729857	1
4.09092	-1.05909	-0.342414	0.190356	0.660832	0.725993	1
4.12655	-1.06511	-0.344663	0.199714	0.658029	0.726024	1
4.1598	-1.06863	-0.347386	0.202374	0.655035	0.727993	1
4.18355	-1.07175	-0.348927	0.203156	0.651541	0.730905	1
4.20633	-1.0723	-0.357312	0.205684	0.636066	0.743716	1
3.89935	-1.02234	-0.335364	0.19922	0.669554	0.715548	1
3.91991	-1.02763	-0.333651	0.193214	0.666788	0.719765	1
3.94408	-1.03136	-0.334874	0.190243	0.664585	0.722588	1
3.97668	-1.03132	-0.337373	0.18609	0.662898	0.725215	1
4.00663	-1.03179	-0.340984	0.176453	0.66199	0.728446	1
4.02869	-1.03531	-0.340181	0.174839	0.662867	0.728037	1
4.05499	-1.03222	-0.347278	0.175341	0.658117	0.732214	1
4.09406	-1.04139	-0.354364	0.186066	0.649327	0.737397	1
3.82422	-0.997479	-0.333435	0.216744	0.663216	0.716356	1
3.85309	-0.99573	-0.339379	0.213447	0.657242	0.722823	1
3.88337	-1.00382	-0.34197	0.202281	0.662285	0.72143	1
3.9131	-1.00575	-0.344698	0.191517	0.660158	0.726301	1
3.94515	-1.00957	-0.345826	0.189206	0.656714	0.730019	1
3.97469	-1.01052	-0.350279	0.184042	0.651579	0.735917	1
4.00649	-1.01254	-0.350176	0.173432	0.648346	0.741329	1
4.0319	-1.01391	-0.356741	0.172281	0.64658	0.743137	1
3.73554	-0.96385	-0.332389	0.180138	0.636085	0.750298	1
3.7648	-0.965509	-0.343713	0.18671	0.638229	0.746862	1
3.80068	-0.972664	-0.346567	0.203084	0.644667	0.736995	1
3.82449	-0.97612	-0.347998	0.208582	0.652098	0.728877	1
3.84948	-0.982286	-0.350315	0.211608	0.649141	0.730642	1
3.88633	-0.9842	-0.357129	0.196045	0.641707	0.741471	1
3.90602	-0.988959	-0.35529	0.193055	0.640167	0.743583	1
3.58971	-0.932561	-0.33312	0.043923	0.4614	0.886105	1
3.62167	-0.935791	-0.344544	0.07563	0.483922	0.871837	1
3.6426	-0.933734	-0.344925	0.086467	0.505503	0.858481	1
3.66913	-0.938715	-0.345434	0.131957	0.554148	0.821892	1
3.71059	-0.947838	-0.345124	0.171845	0.609381	0.774031	1
3.73522	-0.95259	-0.348297	0.181281	0.621046	0.762521	1
3.75329	-0.955191	-0.351123	0.185991	0.621844	0.760735	1
3.55377	-0.917446	-0.344446	0.064225	0.412928	0.908496	1
3.58158	-0.922446	-0.347589	0.060109	0.43219	0.899777	1
3.61929	-0.926945	-0.353524	0.080282	0.4789	0.874191	1
3.63006	-0.923852	-0.352509	0.089441	0.487392	0.86859	1
4.19593	-1.14277	-0.302132	0.191133	0.679085	0.70874	1
4.22105	-1.14316	-0.306307	0.187273	0.675339	0.713335	1
4.24533	-1.14306	-0.310157	0.165191	0.68874	0.705939	1
4.10509	-1.11538	-0.304579	0.189976	0.655916	0.730536	1
4.12828	-1.11526	-0.308413	0.196049	0.656971	0.727979	1
4.15083	-1.12173	-0.309852	0.201419	0.659601	0.724125	1
4.18582	-1.12685	-0.313885	0.207164	0.667226	0.715466	1
4.2187	-1.12598	-0.321456	0.193627	0.673586	0.713295	1
4.24676	-1.13441	-0.31638	0.162073	0.694004	0.701492	1
4.27204	-1.13203	-0.323615	0.148853	0.702334	0.69611	1
4.00816	-1.08698	-0.304505	0.184695	0.664209	0.724372	1
4.04027	-1.0907	-0.308837	0.177907	0.660108	0.729799	1
4.06273	-1.09486	-0.30971	0.182067	0.656417	0.732099	1
4.0946	-1.09621	-0.317693	0.187858	0.655879	0.731117	1
4.12752	-1.09588	-0.324152	0.197832	0.658754	0.725882	1
4.15354	-1.10313	-0.324557	0.200684	0.65784	0.725928	1
4.17715	-1.10928	-0.322636	0.205371	0.657346	0.725065	1
3.88893	-1.05478	-0.305155	0.208588	0.67292	0.709697	1
3.91532	-1.06179	-0.305318	0.201223	0.670535	0.714068	1
3.94876	-1.06302	-0.311089	0.192762	0.669192	0.717652	1
3.97609	-1.06211	-0.316516	0.187541	0.666507	0.721524	1
4.0027	-1.06864	-0.318556	0.180865	0.665035	0.72458	1
4.03438	-1.0694	-0.321057	0.176692	0.663971	0.726583	1
4.06665	-1.07134	-0.326507	0.181791	0.661511	0.727568	1
4.11244	-1.07694	-0.328682	0.197909	0.656252	0.728124	1
3.82209	-1.02559	-0.304207	0.205574	0.65487	0.727245	1
3.84217	-1.02511	-0.307835	0.221778	0.673828	0.70482	1
3.88693	-1.03675	-0.318138	0.205346	0.673488	0.710103	1
3.91424	-1.04031	-0.321567	0.196973	0.668217	0.717418	1
3.94217	-1.04695	-0.324029	0.195734	0.667731	0.718208	1
3.97586	-1.04399	-0.326083	0.186166	0.667841	0.720646	1
4.00554	-1.04357	-0.329433	0.177423	0.664151	0.72624	1
3.73251	-0.99653	-0.300355	0.149102	0.61349	0.775499	1
3.76299	-0.995669	-0.307689	0.183678	0.654522	0.733392	1
3.80426	-1.00949	-0.314248	0.222487	0.672208	0.706142	1
3.82361	-1.01125	-0.317549	0.219606	0.674514	0.704843	1
3.84324	-1.01097	-0.322531	0.219739	0.670865	0.708276	1
3.67445	-0.96544	-0.306569	0.102178	0.583389	0.80574	1
3.70733	-0.970234	-0.309717	0.155789	0.6199	0.76906	1
3.73278	-0.968747	-0.321648	0.181877	0.649038	0.738695	1
3.76241	-0.978732	-0.323084	0.195909	0.658262	0.72685	1
3.5867	-0.934718	-0.31703	0.038308	0.461253	0.886441	1
3.61021	-0.940258	-0.307039	0.03895	0.490192	0.870744	1
3.63717	-0.941424	-0.317424	0.060197	0.524494	0.849283	1
3.67272	-0.949529	-0.320226	0.115972	0.573013	0.8113	1
3.70151	-0.958041	-0.319921	0.17245	0.621352	0.764319	1
3.57935	-0.929908	-0.329043	0.047543	0.447482	0.893028	1
4.12723	-1.14315	-0.275615	0.193417	0.662701	0.723476	1
4.14972	-1.14723	-0.280413	0.19809	0.65534	0.728896	1
4.22236	-1.15529	-0.28571	0.173637	0.679506	0.712826	1
3.97262	-1.11302	-0.273422	0.190759	0.662932	0.72397	1
4.00674	-1.11595	-0.277504	0.190064	0.66098	0.725935	1
4.03751	-1.1205	-0.279619	0.182418	0.655128	0.733165	1
4.06307	-1.12263	-0.284462	0.181727	0.653278	0.734985	1
4.09521	-1.12807	-0.28538	0.188086	0.656313	0.730669	1
4.12701	-1.129	-0.294945	0.194635	0.662388	0.723436	1
4.1507	-1.13385	-0.294444	0.19399	0.667995	0.718436	1
4.17353	-1.13999	-0.295307	0.199676	0.667011	0.717792	1
3.91389	-1.08501	-0.279979	0.190487	0.655079	0.731154	1
3.94517	-1.09248	-0.282182	0.195609	0.668467	0.717557	1
3.97507	-1.09643	-0.286415	0.189296	0.668176	0.71952	1
4.00594	-1.10036	-0.290314	0.185174	0.662575	0.725744	1
4.03924	-1.10508	-0.293668	0.182366	0.655159	0.733151	1
4.06186	-1.10692	-0.296992	0.183702	0.651372	0.736185	1
3.83469	-1.05654	-0.278402	0.162736	0.59714	0.785456	1
3.85751	-1.06094	-0.280805	0.177854	0.627541	0.757997	1
3.8833	-1.06892	-0.281841	0.186165	0.634805	0.74991	1
3.91509	-1.07206	-0.292677	0.203926	0.669843	0.71395	1
3.94275	-1.07504	-0.296156	0.19677	0.667863	0.717802	1
3.97801	-1.07846	-0.299437	0.1909	0.665632	0.72145	1
3.742	-1.02606	-0.274975	0.086091	0.543432	0.835027	1
3.76721	-1.02529	-0.280317	0.117021	0.573691	0.810669	1
3.79821	-1.03211	-0.287513	0.164146	0.598783	0.78391	1
3.82551	-1.04084	-0.29068	0.183961	0.622527	0.76067	1
3.84087	-1.03918	-0.29404	0.206793	0.654607	0.727136	1
3.73879	-1.00935	-0.289441	0.119114	0.585652	0.801763	1
3.76345	-1.01142	-0.291708	0.160136	0.616765	0.770687	1
3.70487	-0.980309	-0.296446	0.122094	0.598225	0.791972	1
4.0979	-1.14696	-0.257925	0.185428	0.660832	0.727267	1
4.1301	-1.15334	-0.251978	0.191593	0.655409	0.730569	1
4.22247	-1.16372	-0.260726	0.159559	0.652966	0.740389	1
3.94967	-1.11644	-0.251586	0.160186	0.54167	0.825187	1
3.97466	-1.12259	-0.253559	0.167159	0.569474	0.804834	1
4.00329	-1.12796	-0.254403	0.177249	0.606402	0.775151	1
4.03954	-1.13349	-0.255334	0.183956	0.658955	0.729341	1
4.06055	-1.13731	-0.261838	0.184592	0.655845	0.731978	1
4.08394	-1.13451	-0.268484	0.182452	0.659415	0.729303	1
3.83102	-1.08358	-0.246116	0.114913	0.517618	0.84786	1
3.85654	-1.0868	-0.250401	0.145198	0.528215	0.836604	1
3.88504	-1.09317	-0.253385	0.163158	0.564482	0.80916	1
3.91456	-1.10114	-0.256448	0.167235	0.56354	0.808984	1
3.93479	-1.10257	-0.260953	0.173035	0.592129	0.787046	1
3.76575	-1.06301	-0.247909	0.062595	0.506276	0.860097	1
3.79275	-1.06174	-0.254851	0.090569	0.525441	0.845996	1
3.83068	-1.07331	-0.255814	0.12699	0.545807	0.828232	1
3.85784	-1.07265	-0.264273	0.162355	0.593696	0.78814	1
3.87694	-1.07795	-0.267779	0.16366	0.604818	0.779365	1
3.73701	-1.03877	-0.2616	0.059589	0.51788	0.853376	1
3.76579	-1.04071	-0.265205	0.091277	0.541031	0.836035	1
3.78361	-1.04662	-0.264586	0.093626	0.540479	0.836132	1
4.07337	-1.45467	-0.241152	-0.087295	0.17364	0.980933	1
4.06444	-1.4507	-0.233013	-0.079588	0.185149	0.979482	1
3.92637	-1.41025	-0.214709	0.127947	0.2358	0.963342	1
3.9798	-1.43409	-0.219459	-0.002397	0.306279	0.951939	1
4.01497	-1.42087	-0.226536	-0.041608	0.253075	0.966552	1
4.04043	-1.4135	-0.231772	-0.057252	0.27056	0.960999	1
3.92836	-1.40472	-0.214828	0.113584	0.238766	0.964412	1
3.951	-1.40353	-0.218116	0.058065	0.260537	0.963716	1
3.97749	-1.39254	-0.224426	-0.00497	0.256328	0.966577	1
4.00278	-1.38437	-0.231315	-0.016011	0.273463	0.961749	1
3.92091	-1.36163	-0.215279	-0.158841	-0.204534	-0.965886	1
3.94286	-1.3601	-0.221466	0.065475	0.217673	0.973823	1
3.98139	-1.36034	-0.231012	0.01671	0.25949	0.965601	1
4.00582	-1.37593	-0.231496	-0.015434	0.281479	0.959443	1
3.88592	-1.33409	-0.215025	-0.148177	-0.20245	-0.968017	1
3.91685	-1.33207	-0.221246	-0.164958	-0.192575	-0.967318	1
3.94475	-1.32709	-0.226952	-0.131507	-0.203551	-0.970192	1
3.85604	-1.29046	-0.217616	-0.135915	-0.211546	-0.967872	1
3.88334	-1.30728	-0.218057	-0.147288	-0.20337	-0.96796	1
3.91638	-1.30174	-0.227257	-0.173769	-0.196311	-0.965022	1
3.82645	-1.27259	-0.218217	0.119	0.21636	0.969034	1
3.85297	-1.27407	-0.220525	-0.145408	-0.215129	-0.9657	1
3.88	-1.28044	-0.223833	-0.154676	-0.213073	-0.964715	1
3.77675	-1.41521	-0.184134	0.082529	0.331777	0.939741	1
3.85956	-1.42239	-0.193587	-0.158347	-0.283367	-0.945849	1
3.88374	-1.42133	-0.199084	-0.172511	-0.2718	-0.946765	1
3.90896	-1.41368	-0.206343	-0.1861	-0.232352	-0.954662	1
3.94216	-1.43471	-0.208874	0.082644	0.277314	0.957218	1
3.76877	-1.3918	-0.184287	0.057239	0.342777	0.937671	1
3.79867	-1.39626	-0.18668	0.114335	0.294901	0.948663	1
3.82657	-1.38979	-0.192856	-0.151593	-0.269844	-0.950896	1
3.84936	-1.38481	-0.196615	-0.161302	-0.262415	-0.951378	1
3.87212	-1.38106	-0.202849	-0.165446	-0.234811	-0.957858	1
3.91474	-1.40583	-0.206946	-0.182353	-0.219993	-0.958306	1
3.73406	-1.35723	-0.18439	0.036317	0.304482	0.951825	1
3.77276	-1.36553	-0.184733	0.080566	0.295127	0.952055	1
3.79667	-1.35824	-0.187537	0.111254	0.275522	0.954835	1
3.81807	-1.35215	-0.193826	0.123272	0.273297	0.953998	1
3.85228	-1.37671	-0.196789	-0.155343	-0.26006	-0.953015	1
3.88824	-1.37026	-0.206597	-0.175101	-0.218178	-0.960072	1
3.90097	-1.35756	-0.209213	-0.174937	-0.211498	-0.961595	1
3.74159	-1.33634	-0.184838	0.051836	0.265575	0.962696	1
3.76501	-1.32709	-0.188025	0.069216	0.272632	0.959625	1
3.79295	-1.33568	-0.19104	0.098633	0.26354	0.959593	1
3.82095	-1.34414	-0.193998	0.130758	0.253705	0.958403	1
3.84819	-1.3364	-0.201253	-0.162917	-0.222459	-0.961234	1
3.88734	-1.33448	-0.209431	-0.151957	-0.206875	-0.966495	1
3.7642	-1.30496	-0.18999	0.052601	0.247168	0.967544	1
3.79554	-1.30907	-0.196932	0.087147	0.237495	0.967472	1
3.82037	-1.31254	-0.200079	0.124101	0.220921	0.967364	1
3.8504	-1.31252	-0.208863	-0.131957	-0.194998	-0.971886	1
3.78915	-1.27322	-0.204351	0.068127	0.203463	0.97671	1
3.82179	-1.28656	-0.206586	0.102273	0.204514	0.973506	1
3.78292	-1.40232	-0.178951	0.090436	0.319403	0.943294	1
3.70702	-1.36689	-0.176356	-0.011392	0.356416	0.934258	1
3.73542	-1.35761	-0.179015	0.036335	0.304454	0.951834	1
3.74295	-1.33672	-0.179462	0.053927	0.269562	0.961472	1
3.07733	-0.874431	-0.331633	0.125086	0.592905	0.795498	1
3.13187	-0.873431	-0.332101	0.08121	0.525366	0.846992	1
3.16102	-0.872785	-0.332738	0.074387	0.479495	0.874386	1
3.19881	-0.871246	-0.332198	0.100547	0.459009	0.882724	1
3.21704	-0.873786	-0.331933	0.123747	0.442956	0.887962	1
3.0172	-0.843972	-0.333027	0.219712	0.553382	0.803427	1
2.96241	-0.811992	-0.336472	-0.292073	-0.502614	-0.813678	1
2.99355	-0.822953	-0.337853	-0.234756	-0.512664	-0.825872	1
3.01726	-0.825594	-0.342644	0.174807	0.493694	0.851885	1
3.04598	-0.825286	-0.352921	0.111529	0.457857	0.882002	1
2.89711	-0.783374	-0.334489	-0.370478	-0.462348	-0.805593	1
2.9291	-0.793444	-0.339263	-0.318106	-0.481639	-0.816598	1
2.95629	-0.797043	-0.345457	-0.25735	-0.459565	-0.850042	1
2.89507	-0.765122	-0.344525	-0.323834	-0.41567	-0.849912	1
2.92171	-0.765154	-0.351112	-0.259952	-0.389771	-0.883461	1
3.44668	-1.02722	-0.30189	-0.146574	-0.196103	-0.969567	1
3.4197	-1.01157	-0.300729	-0.164152	-0.237011	-0.957538	1
3.52353	-1.00755	-0.300895	0.031516	0.359854	0.932476	1
3.05291	-0.904167	-0.300227	0.133087	0.597057	0.791082	1
3.07843	-0.90578	-0.305291	0.108774	0.591588	0.798869	1
3.10908	-0.90779	-0.306239	0.097815	0.578564	0.80975	1
3.13971	-0.90685	-0.306838	0.102144	0.56089	0.821565	1
3.15976	-0.905592	-0.306061	0.111519	0.538878	0.83497	1
2.99929	-0.875154	-0.30555	-0.256284	-0.585579	-0.769035	1
3.01381	-0.880606	-0.306005	0.225682	0.589967	0.775246	1
3.0458	-0.889258	-0.312525	0.149629	0.593853	0.790538	1
3.07375	-0.887602	-0.319321	0.115227	0.594852	0.795534	1
3.19176	-0.869362	-0.325725	0.096325	0.461264	0.882019	1
3.22049	-0.867629	-0.327632	0.126106	0.418806	0.899277	1
2.9278	-0.818728	-0.306382	-0.361291	-0.540864	-0.759563	1
2.95519	-0.825926	-0.315168	-0.342784	-0.546431	-0.764142	1
2.98199	-0.831819	-0.325237	-0.283779	-0.539288	-0.792867	1
2.84346	-0.782631	-0.305829	-0.409776	-0.513148	-0.754164	1
2.8644	-0.785328	-0.314377	-0.406059	-0.497482	-0.766569	1
2.89541	-0.795602	-0.317376	-0.388167	-0.508106	-0.768865	1
2.92042	-0.803547	-0.319603	-0.366194	-0.518857	-0.772457	1
3.44684	-1.23944	-0.271285	0.063253	0.196215	0.978519	1
3.48201	-1.23858	-0.272639	0.013513	0.206763	0.978298	1
3.48987	-1.21678	-0.273106	-0.008902	0.190129	0.981719	1
3.41694	-1.1804	-0.270526	-0.136588	-0.148862	-0.979379	1
3.42205	-1.16623	-0.270829	-0.139129	-0.152603	-0.978446	1
3.41129	-1.12427	-0.271744	-0.151732	-0.160709	-0.975269	1
3.37662	-1.03336	-0.284512	-0.188252	-0.162677	-0.968554	1
3.31455	-1.00915	-0.274356	-0.207888	-0.242677	-0.947571	1
3.4226	-1.00726	-0.296039	-0.168228	-0.255972	-0.951934	1
3.49934	-1.00333	-0.298436	0.059835	0.349935	0.934861	1
3.52679	-1.00922	-0.296044	0.030277	0.357501	0.933422	1
3.26895	-0.977156	-0.270672	-0.210211	-0.371509	-0.904319	1
3.28815	-0.975827	-0.273661	-0.212149	-0.353046	-0.911236	1
3.31405	-0.969381	-0.281032	-0.216196	-0.36046	-0.907374	1
3.347	-0.976728	-0.286799	-0.194008	-0.318801	-0.927754	1
3.37699	-0.976487	-0.294406	-0.192351	-0.351711	-0.916133	1
3.07898	-0.933204	-0.275685	0.112923	0.579887	0.806833	1
3.10965	-0.93564	-0.27656	0.098322	0.560905	0.822021	1
3.1331	-0.932931	-0.272386	0.108553	0.531783	0.839895	1
3.16499	-0.932119	-0.27226	0.138192	0.503672	0.85277	1
3.1836	-0.932866	-0.271669	0.149228	0.496569	0.855073	1
2.96237	-0.903615	-0.270346	-0.303508	-0.554201	-0.775077	1
2.9924	-0.908371	-0.278007	0.247125	0.576356	0.778937	1
3.01816	-0.911743	-0.282652	0.200571	0.585275	0.785636	1
3.04542	-0.915814	-0.284922	0.149023	0.590758	0.792967	1
3.07612	-0.921894	-0.287785	0.113551	0.582608	0.804782	1
3.1095	-0.92147	-0.289207	0.099975	0.568044	0.816903	1
3.1363	-0.920052	-0.28553	0.1038	0.542194	0.833817	1
3.16343	-0.91465	-0.284584	0.112591	0.531495	0.839545	1
3.19393	-0.913456	-0.282567	0.149899	0.494339	0.856247	1
3.22456	-0.912359	-0.285724	0.161244	0.485208	0.859403	1
2.92937	-0.874307	-0.274505	-0.346501	-0.546702	-0.762269	1
2.95652	-0.882239	-0.28136	-0.322625	-0.556754	-0.765466	1
2.98386	-0.890425	-0.289749	-0.286839	-0.56983	-0.770076	1
3.01162	-0.893493	-0.296497	0.216607	0.582418	0.783499	1
3.03457	-0.898	-0.297752	0.177236	0.587421	0.789635	1
3.17558	-0.896509	-0.29683	0.12224	0.531596	0.838131	1
3.19621	-0.897112	-0.295367	0.135089	0.507254	0.851143	1
3.21828	-0.897833	-0.295959	0.145922	0.483679	0.862995	1
2.90247	-0.852431	-0.27542	-0.369619	-0.548838	-0.749772	1
2.93007	-0.85913	-0.284689	-0.351169	-0.55974	-0.750581	1
2.95287	-0.857718	-0.294373	-0.335521	-0.568578	-0.751096	1
2.97525	-0.867091	-0.293805	-0.301572	-0.5754	-0.760243	1
2.86905	-0.816853	-0.27639	-0.409967	-0.533573	-0.739748	1
2.91781	-0.828272	-0.29348	-0.365696	-0.54996	-0.750874	1
2.94285	-0.839498	-0.298186	-0.350124	-0.56013	-0.750778	1
2.88679	-0.802326	-0.294025	-0.399875	-0.521437	-0.753793	1
3.44945	-1.35209	-0.240332	0.021247	0.343705	0.938837	1
3.43451	-1.3319	-0.244619	0.075435	0.317782	0.945158	1
3.46456	-1.33494	-0.246443	0.002715	0.333063	0.942901	1
3.3797	-1.30253	-0.243636	-0.21894	-0.254254	-0.94203	1
3.40437	-1.30456	-0.24784	0.146802	0.277442	0.94946	1
3.4342	-1.30161	-0.252192	0.0878	0.279385	0.956156	1
3.32235	-1.27711	-0.241878	-0.246798	-0.253539	-0.935312	1
3.34857	-1.27152	-0.244014	-0.226029	-0.246428	-0.942435	1
3.3781	-1.27909	-0.248603	-0.207494	-0.244365	-0.947223	1
3.33676	-1.23528	-0.245153	-0.23264	-0.209101	-0.949819	1
3.37197	-1.24736	-0.251051	-0.199072	-0.213649	-0.956412	1
3.40468	-1.24901	-0.258204	-0.160886	-0.208531	-0.964692	1
3.43482	-1.24903	-0.262321	0.088901	0.210331	0.97358	1
3.46186	-1.2463	-0.264601	0.040258	0.206917	0.97753	1
3.49415	-1.24293	-0.268175	-0.013236	0.213724	0.976804	1
3.29513	-1.21944	-0.241512	-0.259739	-0.20516	-0.943634	1
3.31622	-1.21147	-0.244792	-0.249042	-0.191394	-0.949392	1
3.34884	-1.21819	-0.248936	-0.220162	-0.180058	-0.958701	1
3.37575	-1.21044	-0.256391	-0.193349	-0.166727	-0.96686	1
3.40132	-1.21456	-0.260608	-0.150834	-0.170314	-0.973777	1
3.42482	-1.20964	-0.263068	0.110689	0.167804	0.979587	1
3.45674	-1.21581	-0.266862	0.049679	0.184808	0.981518	1
3.49665	-1.2172	-0.268391	-0.027895	0.195213	0.980364	1
3.52445	-1.21161	-0.265136	-0.070352	0.195589	0.978159	1
3.55452	-1.22022	-0.26215	-0.123132	0.223393	0.96692	1
3.58756	-1.21458	-0.25738	-0.147536	0.225524	0.963002	1
3.29391	-1.18034	-0.241965	-0.250191	-0.157628	-0.955279	1
3.31408	-1.17546	-0.246155	-0.233535	-0.14552	-0.961398	1
3.34361	-1.19685	-0.251318	-0.214361	-0.152675	-0.964749	1
3.37306	-1.18579	-0.258934	-0.187746	-0.143031	-0.971748	1
3.40373	-1.18711	-0.263139	-0.137572	-0.143279	-0.980074	1
3.43247	-1.18479	-0.263752	0.096916	0.159386	0.982448	1
3.46797	-1.18465	-0.267529	0.033897	0.158807	0.986727	1
3.50053	-1.18201	-0.26373	-0.038985	0.178347	0.983195	1
3.52966	-1.18511	-0.259816	-0.080703	0.178419	0.980639	1
3.55267	-1.18152	-0.256145	-0.1019	0.17905	0.978549	1
3.58741	-1.18961	-0.2516	-0.137466	0.206242	0.968797	1
3.60887	-1.17832	-0.248767	-0.133074	0.230085	0.964029	1
3.65198	-1.1895	-0.251713	-0.111803	0.258513	0.959516	1
3.67298	-1.18656	-0.246509	-0.095232	0.2681	0.958673	1
3.28181	-1.1523	-0.243261	-0.253526	-0.148845	-0.955808	1
3.31852	-1.15625	-0.249528	-0.221805	-0.1371	-0.965404	1
3.34655	-1.15543	-0.255714	-0.203195	-0.134862	-0.969806	1
3.37425	-1.15417	-0.261638	-0.193079	-0.136399	-0.971656	1
3.39848	-1.14839	-0.263797	-0.164067	-0.147515	-0.975357	1
3.43883	-1.15571	-0.264975	0.096218	0.16514	0.981565	1
3.55425	-1.15341	-0.251571	-0.107179	0.167357	0.980053	1
3.59217	-1.15494	-0.252099	-0.109128	0.20645	0.972353	1
3.61358	-1.15664	-0.249808	-0.106618	0.241455	0.964537	1
3.6411	-1.15249	-0.244605	-0.104936	0.265405	0.958409	1
3.67048	-1.15464	-0.244098	-0.092457	0.293845	0.951371	1
3.2679	-1.12531	-0.241725	-0.248483	-0.144339	-0.957822	1
3.28696	-1.11828	-0.245768	-0.235201	-0.142575	-0.961433	1
3.31416	-1.12403	-0.25122	-0.2182	-0.14381	-0.96525	1
3.34963	-1.1263	-0.259228	-0.209105	-0.146996	-0.966782	1
3.37528	-1.12649	-0.263556	-0.197826	-0.152031	-0.968376	1
3.40313	-1.1289	-0.265326	-0.165096	-0.156386	-0.9738	1
3.43295	-1.1301	-0.266574	0.124581	0.161375	0.978998	1
3.45938	-1.12642	-0.265725	0.057274	0.165752	0.984503	1
3.26001	-1.09498	-0.243524	-0.245526	-0.151608	-0.957461	1
3.286	-1.08632	-0.250146	-0.234395	-0.163181	-0.958348	1
3.31506	-1.10156	-0.254554	-0.219557	-0.156145	-0.963023	1
3.34639	-1.09567	-0.264696	-0.207479	-0.160361	-0.965006	1
3.37099	-1.09631	-0.267906	-0.200684	-0.160638	-0.966396	1
3.22622	-1.05399	-0.242065	-0.240991	-0.215877	-0.946214	1
3.2528	-1.06305	-0.244294	-0.243737	-0.19286	-0.950472	1
3.28384	-1.06248	-0.253274	-0.234764	-0.173066	-0.956522	1
3.31234	-1.06148	-0.261665	-0.225805	-0.170704	-0.9591	1
3.34002	-1.06822	-0.268098	-0.214633	-0.16497	-0.962662	1
3.37093	-1.07859	-0.269197	-0.199218	-0.161338	-0.966583	1
3.20035	-1.02701	-0.241966	-0.219015	-0.305401	-0.926695	1
3.22806	-1.03456	-0.246747	-0.231362	-0.26401	-0.93636	1
3.25695	-1.03855	-0.253618	-0.23556	-0.221499	-0.946282	1
3.28616	-1.03547	-0.262668	-0.222928	-0.21235	-0.951425	1
3.30962	-1.03399	-0.267313	-0.216149	-0.19994	-0.955669	1
3.33544	-1.04704	-0.268155	-0.212635	-0.170696	-0.962107	1
3.14271	-0.991081	-0.243166	0.17777	0.436456	0.881988	1
3.16874	-0.994521	-0.244001	0.187337	0.406037	0.894449	1
3.19427	-1.00132	-0.246179	-0.204721	-0.366946	-0.907436	1
3.22288	-1.01003	-0.251884	-0.21922	-0.331694	-0.917563	1
3.25374	-1.00805	-0.260932	-0.224164	-0.301997	-0.926579	1
3.281	-1.00424	-0.265306	-0.216014	-0.293496	-0.931234	1
3.30157	-1.01404	-0.267113	-0.212284	-0.229494	-0.949878	1
3.04797	-0.963458	-0.240149	0.174348	0.570164	0.802817	1
3.07731	-0.965825	-0.242379	0.141624	0.556341	0.818796	1
3.10558	-0.968584	-0.242023	0.139232	0.52241	0.84125	1
3.13659	-0.970679	-0.243668	0.141191	0.49363	0.858134	1
3.16286	-0.972984	-0.246629	0.16403	0.463317	0.87088	1
3.19472	-0.978116	-0.25136	0.186758	0.434766	0.880965	1
3.22619	-0.975899	-0.259835	-0.20231	-0.392481	-0.897234	1
3.2483	-0.972346	-0.266456	-0.209765	-0.382582	-0.899794	1
2.96966	-0.938649	-0.241668	-0.276032	-0.576959	-0.768716	1
2.98618	-0.936436	-0.244541	-0.256688	-0.581441	-0.772034	1
3.0177	-0.942384	-0.250027	0.206801	0.584824	0.784356	1
3.04404	-0.941203	-0.256668	0.16107	0.5868	0.79355	1
3.07622	-0.948092	-0.254369	0.126603	0.563284	0.816506	1
3.10647	-0.945506	-0.255832	0.109928	0.543835	0.831961	1
3.13423	-0.943818	-0.258173	0.115845	0.525586	0.842816	1
3.16103	-0.945403	-0.256088	0.139206	0.499468	0.855075	1
3.19186	-0.943739	-0.261007	0.160487	0.478935	0.863056	1
2.92876	-0.906265	-0.247923	-0.337967	-0.538611	-0.7718	1
2.95248	-0.913847	-0.25112	-0.313175	-0.553752	-0.771544	1
2.9826	-0.919573	-0.258586	-0.262817	-0.570742	-0.777934	1
3.01441	-0.926577	-0.264408	0.212786	0.585375	0.782341	1
3.04039	-0.927253	-0.267484	0.159837	0.586648	0.793912	1
3.13137	-0.92695	-0.269349	0.106309	0.540358	0.834693	1
3.19042	-0.92586	-0.266687	0.153072	0.493423	0.856214	1
2.87736	-0.874671	-0.246066	-0.39549	-0.518606	-0.758047	1
2.89584	-0.879707	-0.252122	-0.37669	-0.523405	-0.764298	1
2.9207	-0.888023	-0.258639	-0.353886	-0.534231	-0.767699	1
2.95112	-0.898749	-0.261799	-0.326173	-0.54715	-0.770869	1
2.86178	-0.852193	-0.252468	-0.407286	-0.514284	-0.754739	1
2.89389	-0.85889	-0.264526	-0.379916	-0.53621	-0.753752	1
2.81006	-0.818952	-0.24473	-0.404409	-0.526269	-0.747993	1
2.83447	-0.825679	-0.252001	-0.418441	-0.511741	-0.750352	1
2.85987	-0.832494	-0.261493	-0.405508	-0.524752	-0.748464	1
2.83336	-0.803729	-0.263075	-0.413987	-0.518634	-0.748087	1
3.40964	-1.3847	-0.213956	0.107509	0.379259	0.919024	1
3.44356	-1.38774	-0.214671	0.025603	0.392746	0.919291	1
3.40838	-1.36156	-0.217289	0.125658	0.34407	0.930498	1
3.4345	-1.36651	-0.21976	0.04894	0.364321	0.929986	1
3.46426	-1.36415	-0.228947	-0.019834	0.36839	0.92946	1
3.35021	-1.32566	-0.2164	-0.231172	-0.282734	-0.930925	1
3.3758	-1.33368	-0.221779	-0.215307	-0.29163	-0.931984	1
3.40264	-1.33609	-0.228243	0.144834	0.312434	0.938833	1
3.42923	-1.33836	-0.236148	0.075721	0.326471	0.942169	1
3.46272	-1.34481	-0.235884	-0.009112	0.336553	0.94162	1
3.31159	-1.29591	-0.220253	-0.250531	-0.260265	-0.932468	1
3.33729	-1.30324	-0.225918	-0.238394	-0.272326	-0.932205	1
3.37041	-1.31247	-0.236863	-0.2247	-0.266851	-0.937177	1
3.39363	-1.31322	-0.238897	-0.190724	-0.279538	-0.941001	1
3.26064	-1.26542	-0.217958	-0.267873	-0.232263	-0.935039	1
3.29309	-1.27661	-0.225589	-0.266344	-0.242025	-0.932998	1
3.31283	-1.27793	-0.232626	-0.252399	-0.254138	-0.933653	1
3.35306	-1.28642	-0.237943	-0.231228	-0.260107	-0.937485	1
3.20508	-1.23263	-0.215477	-0.275247	-0.188971	-0.942618	1
3.229	-1.24103	-0.219998	-0.271864	-0.206949	-0.93982	1
3.251	-1.2479	-0.224223	-0.264556	-0.217722	-0.939472	1
3.2778	-1.24351	-0.233749	-0.267793	-0.223136	-0.937282	1
3.31186	-1.24946	-0.235848	-0.254901	-0.225542	-0.940296	1
3.19402	-1.21322	-0.216253	-0.275359	-0.179658	-0.944405	1
3.23673	-1.22251	-0.225841	-0.278939	-0.20528	-0.938112	1
